-1010.614667 2637.024984 -10.011696
-1011.329196 2638.892991 -10.011696
-1012.043725 2640.760997 -10.011696
-1012.758254 2642.629004 -10.011696
-1013.472783 2644.497010 -10.011696
-1014.187312 2646.365017 -10.011696
-1014.901841 2648.233023 -10.011696
-1015.616370 2650.101030 -10.011696
-1016.330899 2651.969036 -10.011696
-1017.045428 2653.837043 -10.011696
-1017.759957 2655.705049 -10.011696
-1018.474486 2657.573056 -10.011696
-1019.189015 2659.441062 -10.011696
-1019.903544 2661.309069 -10.011696
-1020.618073 2663.177076 -10.011696
-1021.332602 2665.045082 -10.011696
-1022.047131 2666.913089 -10.011696
-1022.761660 2668.781095 -10.011696
-1023.476189 2670.649102 -10.011696
-1024.190718 2672.517108 -10.011696
-1024.905247 2674.385115 -10.011696
-1025.619776 2676.253121 -10.011696
-1026.334305 2678.121128 -10.011696
-1027.048834 2679.989134 -10.011696
-1027.763363 2681.857141 -10.011696
-1028.477891 2683.725147 -10.011696
-1029.192420 2685.593154 -10.011696
-1030.113060 2688.000000 -10.011696
-1032.110273 2688.000000 -10.117245
-1034.107486 2688.000000 -10.222794
-1036.104699 2688.000000 -10.328342
-1038.101912 2688.000000 -10.433891
-1040.099125 2688.000000 -10.539440
-1042.096338 2688.000000 -10.644989
-1044.093551 2688.000000 -10.750538
-1046.090764 2688.000000 -10.856087
-1048.087977 2688.000000 -10.961636
-1050.085190 2688.000000 -11.067184
-1052.082403 2688.000000 -11.172733
-1054.079615 2688.000000 -11.278282
-1056.076828 2688.000000 -11.383831
-1058.074041 2688.000000 -11.489380
-1060.071254 2688.000000 -11.594929
-1062.068467 2688.000000 -11.700478
-1064.065680 2688.000000 -11.806026
-1066.062893 2688.000000 -11.911575
-1068.060106 2688.000000 -12.017124
-1070.057319 2688.000000 -12.122673
-1072.054532 2688.000000 -12.228222
-1074.051745 2688.000000 -12.333771
-1076.048958 2688.000000 -12.439320
-1078.046170 2688.000000 -12.544869
-1080.043383 2688.000000 -12.650417
-1082.040596 2688.000000 -12.755966
-1084.037809 2688.000000 -12.861515
-1086.035022 2688.000000 -12.967064
-1088.032235 2688.000000 -13.072613
-1090.029448 2688.000000 -13.178162
-1092.026661 2688.000000 -13.283711
-1094.023874 2688.000000 -13.389259
-1096.021087 2688.000000 -13.494808
-1098.018300 2688.000000 -13.600357
-1100.015513 2688.000000 -13.705906
-1102.012725 2688.000000 -13.811455
-1104.009938 2688.000000 -13.917004
-1106.007151 2688.000000 -14.022553
-1108.004364 2688.000000 -14.128101
-1110.001577 2688.000000 -14.233650
-1111.998790 2688.000000 -14.339199
-1113.996003 2688.000000 -14.444748
-1115.993216 2688.000000 -14.550297
-1117.990429 2688.000000 -14.655846
-1119.987642 2688.000000 -14.761395
-1121.984855 2688.000000 -14.866943
-1123.982068 2688.000000 -14.972492
-1125.979280 2688.000000 -15.078041
-1127.976493 2688.000000 -15.183590
-1129.973706 2688.000000 -15.289139
-1131.970919 2688.000000 -15.394688
-1133.968132 2688.000000 -15.500237
-1135.965345 2688.000000 -15.605785
-1137.962558 2688.000000 -15.711334
-1139.959771 2688.000000 -15.816883
-1141.956984 2688.000000 -15.922432
-1143.954197 2688.000000 -16.027981
-1145.951410 2688.000000 -16.133530
-1147.948623 2688.000000 -16.239079
-1149.945835 2688.000000 -16.344627
-1151.943048 2688.000000 -16.450176
-1153.940261 2688.000000 -16.555725
-1155.937474 2688.000000 -16.661274
-1157.934687 2688.000000 -16.766823
-1159.931900 2688.000000 -16.872372
-1161.929113 2688.000000 -16.977921
-1163.926326 2688.000000 -17.083469
-1165.923539 2688.000000 -17.189018
-1167.920752 2688.000000 -17.294567
-1169.917965 2688.000000 -17.400116
-1171.915178 2688.000000 -17.505665
-1173.912391 2688.000000 -17.611214
-1175.909603 2688.000000 -17.716763
-1177.906816 2688.000000 -17.822311
-1179.904029 2688.000000 -17.927860
-1181.901242 2688.000000 -18.033409
-1183.898455 2688.000000 -18.138958
-1185.895668 2688.000000 -18.244507
-1187.892881 2688.000000 -18.350056
-1189.890094 2688.000000 -18.455605
-1191.887307 2688.000000 -18.561153
-1193.884520 2688.000000 -18.666702
-1195.881733 2688.000000 -18.772251
-1197.878946 2688.000000 -18.877800
-1199.876158 2688.000000 -18.983349
-1201.873371 2688.000000 -19.088898
-1203.870584 2688.000000 -19.194447
-1205.867797 2688.000000 -19.299995
-1207.865010 2688.000000 -19.405544
-1209.862223 2688.000000 -19.511093
-1211.859436 2688.000000 -19.616642
-1213.856649 2688.000000 -19.722191
-1215.853862 2688.000000 -19.827740
-1217.851075 2688.000000 -19.933289
-1219.848288 2688.000000 -20.038837
-1221.845501 2688.000000 -20.144386
-1223.842713 2688.000000 -20.249935
-1225.839926 2688.000000 -20.355484
-1227.837139 2688.000000 -20.461033
-1229.834352 2688.000000 -20.566582
-1231.831565 2688.000000 -20.672131
-1233.828778 2688.000000 -20.777679
-1235.825991 2688.000000 -20.883228
-1237.823204 2688.000000 -20.988777
-1239.820417 2688.000000 -21.094326
-1241.817630 2688.000000 -21.199875
-1243.814843 2688.000000 -21.305424
-1245.812056 2688.000000 -21.410973
-1247.809268 2688.000000 -21.516521
-1249.806481 2688.000000 -21.622070
-1251.803694 2688.000000 -21.727619
-1253.800907 2688.000000 -21.833168
-1255.798120 2688.000000 -21.938717
-1257.795333 2688.000000 -22.044266
-1259.792546 2688.000000 -22.149815
-1261.789759 2688.000000 -22.255363
-1263.786972 2688.000000 -22.360912
-1265.784185 2688.000000 -22.466461
-1267.781398 2688.000000 -22.572010
-1269.778611 2688.000000 -22.677559
-1271.775823 2688.000000 -22.783108
-1273.773036 2688.000000 -22.888657
-1275.770249 2688.000000 -22.994205
-1277.767462 2688.000000 -23.099754
-1279.764675 2688.000000 -23.205303
-1281.761888 2688.000000 -23.310852
-1283.759101 2688.000000 -23.416401
-1285.756314 2688.000000 -23.521950
-1287.753527 2688.000000 -23.627499
-1289.750740 2688.000000 -23.733048
-1291.747953 2688.000000 -23.838596
-1293.745166 2688.000000 -23.944145
-1295.742378 2688.000000 -24.049694
-1297.739591 2688.000000 -24.155243
-1299.736804 2688.000000 -24.260792
-1301.734017 2688.000000 -24.366341
-1303.731230 2688.000000 -24.471890
-1305.728443 2688.000000 -24.577438
-1307.725656 2688.000000 -24.682987
-1309.722869 2688.000000 -24.788536
-1311.720082 2688.000000 -24.894085
-1313.717295 2688.000000 -24.999634
-1315.714508 2688.000000 -25.105183
-1317.711721 2688.000000 -25.210732
-1319.708933 2688.000000 -25.316280
-1321.706146 2688.000000 -25.421829
-1323.703359 2688.000000 -25.527378
-1325.700572 2688.000000 -25.632927
-1327.697785 2688.000000 -25.738476
-1329.694998 2688.000000 -25.844025
-1331.692211 2688.000000 -25.949574
-1333.689424 2688.000000 -26.055122
-1335.686637 2688.000000 -26.160671
-1337.683850 2688.000000 -26.266220
-1339.681063 2688.000000 -26.371769
-1341.678276 2688.000000 -26.477318
-1343.675489 2688.000000 -26.582867
-1345.672701 2688.000000 -26.688416
-1347.669914 2688.000000 -26.793964
-1349.667127 2688.000000 -26.899513
-1351.664340 2688.000000 -27.005062
-1353.661553 2688.000000 -27.110611
-1355.658766 2688.000000 -27.216160
-1357.655979 2688.000000 -27.321709
-1359.653192 2688.000000 -27.427258
-1361.650405 2688.000000 -27.532806
-1363.647618 2688.000000 -27.638355
-1365.644831 2688.000000 -27.743904
-1367.642044 2688.000000 -27.849453
-1369.639256 2688.000000 -27.955002
-1371.636469 2688.000000 -28.060551
-1373.633682 2688.000000 -28.166100
-1375.630895 2688.000000 -28.271648
-1377.628108 2688.000000 -28.377197
-1379.625321 2688.000000 -28.482746
-1381.622534 2688.000000 -28.588295
-1383.619747 2688.000000 -28.693844
-1385.616960 2688.000000 -28.799393
-1387.614173 2688.000000 -28.904942
-1389.611386 2688.000000 -29.010490
-1391.608599 2688.000000 -29.116039
-1393.605811 2688.000000 -29.221588
-1395.603024 2688.000000 -29.327137
-1397.600237 2688.000000 -29.432686
-1399.597450 2688.000000 -29.538235
-1401.594663 2688.000000 -29.643784
-1403.591876 2688.000000 -29.749332
-1405.589089 2688.000000 -29.854881
-1407.586302 2688.000000 -29.960430
-1409.583515 2688.000000 -30.065979
-1411.580728 2688.000000 -30.171528
-1413.577941 2688.000000 -30.277077
-1415.575154 2688.000000 -30.382626
-1417.572366 2688.000000 -30.488174
-1419.569579 2688.000000 -30.593723
-1421.566792 2688.000000 -30.699272
-1423.564005 2688.000000 -30.804821
-1425.561218 2688.000000 -30.910370
-1427.558431 2688.000000 -31.015919
-1429.555644 2688.000000 -31.121468
-1431.552857 2688.000000 -31.227016
-1433.550070 2688.000000 -31.332565
-1435.547283 2688.000000 -31.438114
-1437.544496 2688.000000 -31.543663
-1439.541709 2688.000000 -31.649212
-1441.538921 2688.000000 -31.754761
-1443.536134 2688.000000 -31.860310
-1445.533347 2688.000000 -31.965858
-1447.530560 2688.000000 -32.071407
-1449.527773 2688.000000 -32.176956
-1451.524986 2688.000000 -32.282505
-1453.522199 2688.000000 -32.388054
-1455.519412 2688.000000 -32.493603
-1457.516625 2688.000000 -32.599152
-1459.513838 2688.000000 -32.704700
-1461.511051 2688.000000 -32.810249
-1463.508264 2688.000000 -32.915798
-1465.505476 2688.000000 -33.021347
-1467.502689 2688.000000 -33.126896
-1469.499902 2688.000000 -33.232445
-1471.497115 2688.000000 -33.337994
-1473.494328 2688.000000 -33.443542
-1475.491541 2688.000000 -33.549091
-1477.488754 2688.000000 -33.654640
-1479.485967 2688.000000 -33.760189
-1481.483180 2688.000000 -33.865738
-1483.480393 2688.000000 -33.971287
-1485.477606 2688.000000 -34.076836
-1487.474819 2688.000000 -34.182384
-1489.472031 2688.000000 -34.287933
-1491.469244 2688.000000 -34.393482
-1493.466457 2688.000000 -34.499031
-1495.463670 2688.000000 -34.604580
-1497.460883 2688.000000 -34.710129
-1499.458096 2688.000000 -34.815678
-1501.455309 2688.000000 -34.921226
-1503.452522 2688.000000 -35.026775
-1505.449735 2688.000000 -35.132324
-1507.446948 2688.000000 -35.237873
-1509.444161 2688.000000 -35.343422
-1511.441374 2688.000000 -35.448971
-1513.438587 2688.000000 -35.554520
-1515.435799 2688.000000 -35.660069
-1517.433012 2688.000000 -35.765617
-1519.430225 2688.000000 -35.871166
-1521.427438 2688.000000 -35.976715
-1523.424651 2688.000000 -36.082264
-1525.421864 2688.000000 -36.187813
-1527.419077 2688.000000 -36.293362
-1529.416290 2688.000000 -36.398911
-1531.413503 2688.000000 -36.504459
-1533.410716 2688.000000 -36.610008
-1535.407929 2688.000000 -36.715557
-1537.405142 2688.000000 -36.821106
-1539.402354 2688.000000 -36.926655
-1541.399567 2688.000000 -37.032204
-1543.396780 2688.000000 -37.137753
-1545.393993 2688.000000 -37.243301
-1547.391206 2688.000000 -37.348850
-1549.388419 2688.000000 -37.454399
-1551.385632 2688.000000 -37.559948
-1553.382845 2688.000000 -37.665497
-1555.380058 2688.000000 -37.771046
-1557.377271 2688.000000 -37.876595
-1559.374484 2688.000000 -37.982143
-1561.371697 2688.000000 -38.087692
-1563.368909 2688.000000 -38.193241
-1565.366122 2688.000000 -38.298790
-1567.363335 2688.000000 -38.404339
-1569.360548 2688.000000 -38.509888
-1571.357761 2688.000000 -38.615437
-1573.354974 2688.000000 -38.720985
-1575.352187 2688.000000 -38.826534
-1577.349400 2688.000000 -38.932083
-1579.346613 2688.000000 -39.037632
-1581.343826 2688.000000 -39.143181
-1583.341039 2688.000000 -39.248730
-1585.338252 2688.000000 -39.354279
-1587.335464 2688.000000 -39.459827
-1589.332677 2688.000000 -39.565376
-1591.329890 2688.000000 -39.670925
-1593.327103 2688.000000 -39.776474
-1595.324316 2688.000000 -39.882023
-1597.321529 2688.000000 -39.987572
-1599.318742 2688.000000 -40.093121
-1601.315955 2688.000000 -40.198669
-1603.313168 2688.000000 -40.304218
-1605.310381 2688.000000 -40.409767
-1607.307594 2688.000000 -40.515316
-1609.304807 2688.000000 -40.620865
-1611.302019 2688.000000 -40.726414
-1613.299232 2688.000000 -40.831963
-1615.296445 2688.000000 -40.937511
-1617.293658 2688.000000 -41.043060
-1619.290871 2688.000000 -41.148609
-1621.288084 2688.000000 -41.254158
-1623.285297 2688.000000 -41.359707
-1625.282510 2688.000000 -41.465256
-1627.279723 2688.000000 -41.570805
-1629.276936 2688.000000 -41.676353
-1631.274149 2688.000000 -41.781902
-1633.271362 2688.000000 -41.887451
-1635.268574 2688.000000 -41.993000
-1637.265787 2688.000000 -42.098549
-1639.263000 2688.000000 -42.204098
-1641.260213 2688.000000 -42.309647
-1643.257426 2688.000000 -42.415195
-1645.254639 2688.000000 -42.520744
-1647.251852 2688.000000 -42.626293
-1649.249065 2688.000000 -42.731842
-1651.246278 2688.000000 -42.837391
-1653.243491 2688.000000 -42.942940
-1655.240704 2688.000000 -43.048489
-1657.237917 2688.000000 -43.154037
-1659.235129 2688.000000 -43.259586
-1661.232342 2688.000000 -43.365135
-1663.229555 2688.000000 -43.470684
-1665.226768 2688.000000 -43.576233
-1667.223981 2688.000000 -43.681782
-1669.221194 2688.000000 -43.787331
-1671.218407 2688.000000 -43.892879
-1673.215620 2688.000000 -43.998428
-1675.212833 2688.000000 -44.103977
-1677.210046 2688.000000 -44.209526
-1679.207259 2688.000000 -44.315075
-1681.204472 2688.000000 -44.420624
-1683.201685 2688.000000 -44.526173
-1685.198897 2688.000000 -44.631721
-1687.196110 2688.000000 -44.737270
-1689.193323 2688.000000 -44.842819
-1691.190536 2688.000000 -44.948368
-1693.187749 2688.000000 -45.053917
-1695.184962 2688.000000 -45.159466
-1697.182175 2688.000000 -45.265015
-1699.179388 2688.000000 -45.370563
-1701.176601 2688.000000 -45.476112
-1703.173814 2688.000000 -45.581661
-1705.171027 2688.000000 -45.687210
-1707.168240 2688.000000 -45.792759
-1709.165452 2688.000000 -45.898308
-1711.162665 2688.000000 -46.003857
-1713.159878 2688.000000 -46.109405
-1715.157091 2688.000000 -46.214954
-1717.154304 2688.000000 -46.320503
-1719.151517 2688.000000 -46.426052
-1721.148730 2688.000000 -46.531601
-1723.145943 2688.000000 -46.637150
-1725.143156 2688.000000 -46.742699
-1727.140369 2688.000000 -46.848247
-1729.137582 2688.000000 -46.953796
-1731.134795 2688.000000 -47.059345
-1733.132007 2688.000000 -47.164894
-1735.129220 2688.000000 -47.270443
-1737.126433 2688.000000 -47.375992
-1739.123646 2688.000000 -47.481541
-1741.120859 2688.000000 -47.587090
-1743.118072 2688.000000 -47.692638
-1745.115285 2688.000000 -47.798187
-1747.112498 2688.000000 -47.903736
-1749.109711 2688.000000 -48.009285
-1751.106924 2688.000000 -48.114834
-1753.104137 2688.000000 -48.220383
-1755.101350 2688.000000 -48.325932
-1757.098562 2688.000000 -48.431480
-1759.095775 2688.000000 -48.537029
-1761.092988 2688.000000 -48.642578
-1763.090201 2688.000000 -48.748127
-1765.087414 2688.000000 -48.853676
-1767.084627 2688.000000 -48.959225
-1769.081840 2688.000000 -49.064774
-1771.079053 2688.000000 -49.170322
-1773.076266 2688.000000 -49.275871
-1775.073479 2688.000000 -49.381420
-1777.070692 2688.000000 -49.486969
-1779.067905 2688.000000 -49.592518
-1781.065117 2688.000000 -49.698067
-1783.062330 2688.000000 -49.803616
-1785.059543 2688.000000 -49.909164
-1787.056756 2688.000000 -50.014713
-1789.053969 2688.000000 -50.120262
-1791.051182 2688.000000 -50.225811
-1793.048395 2688.000000 -50.331360
-1795.045608 2688.000000 -50.436909
-1797.042821 2688.000000 -50.542458
-1799.040034 2688.000000 -50.648006
-1801.037247 2688.000000 -50.753555
-1803.034460 2688.000000 -50.859104
-1805.031672 2688.000000 -50.964653
-1807.028885 2688.000000 -51.070202
-1809.026098 2688.000000 -51.175751
-1811.023311 2688.000000 -51.281300
-1813.020524 2688.000000 -51.386848
-1815.017737 2688.000000 -51.492397
-1817.014950 2688.000000 -51.597946
-1819.012163 2688.000000 -51.703495
-1821.009376 2688.000000 -51.809044
-1823.006589 2688.000000 -51.914593
-1825.003802 2688.000000 -52.020142
-1827.001015 2688.000000 -52.125690
-1828.998227 2688.000000 -52.231239
-1830.995440 2688.000000 -52.336788
-1832.992653 2688.000000 -52.442337
-1834.989866 2688.000000 -52.547886
-1836.987079 2688.000000 -52.653435
-1838.984292 2688.000000 -52.758984
-1840.981505 2688.000000 -52.864532
-1842.978718 2688.000000 -52.970081
-1844.975931 2688.000000 -53.075630
-1846.973144 2688.000000 -53.181179
-1848.970357 2688.000000 -53.286728
-1850.967570 2688.000000 -53.392277
-1852.964783 2688.000000 -53.497826
-1854.961995 2688.000000 -53.603374
-1856.959208 2688.000000 -53.708923
-1858.956421 2688.000000 -53.814472
-1860.953634 2688.000000 -53.920021
-1862.950847 2688.000000 -54.025570
-1864.948060 2688.000000 -54.131119
-1866.945273 2688.000000 -54.236668
-1868.942486 2688.000000 -54.342216
-1870.939699 2688.000000 -54.447765
-1872.936912 2688.000000 -54.553314
-1874.934125 2688.000000 -54.658863
-1876.931338 2688.000000 -54.764412
-1878.928550 2688.000000 -54.869961
-1880.925763 2688.000000 -54.975510
-1882.922976 2688.000000 -55.081058
-1884.920189 2688.000000 -55.186607
-1886.917402 2688.000000 -55.292156
-1888.914615 2688.000000 -55.397705
-1890.911828 2688.000000 -55.503254
-1892.909041 2688.000000 -55.608803
-1894.906254 2688.000000 -55.714352
-1896.903467 2688.000000 -55.819900
-1898.900680 2688.000000 -55.925449
-1900.897893 2688.000000 -56.030998
-1902.895105 2688.000000 -56.136547
-1904.892318 2688.000000 -56.242096
-1906.889531 2688.000000 -56.347645
-1908.886744 2688.000000 -56.453194
-1910.883957 2688.000000 -56.558742
-1912.881170 2688.000000 -56.664291
-1914.878383 2688.000000 -56.769840
-1916.875596 2688.000000 -56.875389
-1918.872809 2688.000000 -56.980938
-1920.870022 2688.000000 -57.086487
-1922.867235 2688.000000 -57.192036
-1924.864448 2688.000000 -57.297584
-1926.861660 2688.000000 -57.403133
-1928.858873 2688.000000 -57.508682
-1930.856086 2688.000000 -57.614231
-1932.853299 2688.000000 -57.719780
-1934.850512 2688.000000 -57.825329
-1936.847725 2688.000000 -57.930878
-1938.844938 2688.000000 -58.036426
-1940.842151 2688.000000 -58.141975
-1942.839364 2688.000000 -58.247524
-1944.836577 2688.000000 -58.353073
-1946.833790 2688.000000 -58.458622
-1948.831003 2688.000000 -58.564171
-1950.828215 2688.000000 -58.669720
-1952.825428 2688.000000 -58.775268
-1954.822641 2688.000000 -58.880817
-1956.819854 2688.000000 -58.986366
-1958.817067 2688.000000 -59.091915
-1960.814280 2688.000000 -59.197464
-1962.811493 2688.000000 -59.303013
-1964.808706 2688.000000 -59.408562
-1966.805919 2688.000000 -59.514111
-1968.803132 2688.000000 -59.619659
-1970.800345 2688.000000 -59.725208
-1972.797558 2688.000000 -59.830757
-1976.000000 2688.000000 -60.000000
-1976.030117 2686.000227 -60.000000
-1976.060234 2684.000454 -60.000000
-1976.090351 2682.000680 -60.000000
-1976.120468 2680.000907 -60.000000
-1976.150585 2678.001134 -60.000000
-1976.180702 2676.001361 -60.000000
-1976.210819 2674.001587 -60.000000
-1976.240937 2672.001814 -60.000000
-1976.271054 2670.002041 -60.000000
-1976.301171 2668.002268 -60.000000
-1976.331288 2666.002494 -60.000000
-1976.361405 2664.002721 -60.000000
-1976.391522 2662.002948 -60.000000
-1976.421639 2660.003175 -60.000000
-1976.451756 2658.003402 -60.000000
-1976.481873 2656.003628 -60.000000
-1976.511990 2654.003855 -60.000000
-1976.542107 2652.004082 -60.000000
-1976.572224 2650.004309 -60.000000
-1976.602341 2648.004535 -60.000000
-1976.632458 2646.004762 -60.000000
-1976.662575 2644.004989 -60.000000
-1976.692693 2642.005216 -60.000000
-1976.722810 2640.005443 -60.000000
-1976.752927 2638.005669 -60.000000
-1976.783044 2636.005896 -60.000000
-1976.813161 2634.006123 -60.000000
-1976.843278 2632.006350 -60.000000
-1976.873395 2630.006576 -60.000000
-1976.903512 2628.006803 -60.000000
-1976.933629 2626.007030 -60.000000
-1976.963746 2624.007257 -60.000000
-1976.993863 2622.007483 -60.000000
-1977.023980 2620.007710 -60.000000
-1977.054097 2618.007937 -60.000000
-1977.084214 2616.008164 -60.000000
-1977.114331 2614.008391 -60.000000
-1977.144449 2612.008617 -60.000000
-1977.174566 2610.008844 -60.000000
-1977.204683 2608.009071 -60.000000
-1977.234800 2606.009298 -60.000000
-1977.264917 2604.009524 -60.000000
-1977.295034 2602.009751 -60.000000
-1977.325151 2600.009978 -60.000000
-1977.355268 2598.010205 -60.000000
-1977.385385 2596.010432 -60.000000
-1977.415502 2594.010658 -60.000000
-1977.445619 2592.010885 -60.000000
-1977.475736 2590.011112 -60.000000
-1977.505853 2588.011339 -60.000000
-1977.535970 2586.011565 -60.000000
-1977.566087 2584.011792 -60.000000
-1977.596205 2582.012019 -60.000000
-1977.626322 2580.012246 -60.000000
-1977.656439 2578.012472 -60.000000
-1977.686556 2576.012699 -60.000000
-1977.716673 2574.012926 -60.000000
-1977.746790 2572.013153 -60.000000
-1977.776907 2570.013380 -60.000000
-1977.807024 2568.013606 -60.000000
-1977.837141 2566.013833 -60.000000
-1977.867258 2564.014060 -60.000000
-1977.897375 2562.014287 -60.000000
-1977.927492 2560.014513 -60.000000
-1977.957609 2558.014740 -60.000000
-1977.987726 2556.014967 -60.000000
-1978.017843 2554.015194 -60.000000
-1978.047961 2552.015421 -60.000000
-1978.078078 2550.015647 -60.000000
-1978.108195 2548.015874 -60.000000
-1978.138312 2546.016101 -60.000000
-1978.168429 2544.016328 -60.000000
-1978.198546 2542.016554 -60.000000
-1978.228663 2540.016781 -60.000000
-1978.258780 2538.017008 -60.000000
-1978.288897 2536.017235 -60.000000
-1978.319014 2534.017461 -60.000000
-1978.349131 2532.017688 -60.000000
-1978.379248 2530.017915 -60.000000
-1978.409365 2528.018142 -60.000000
-1978.439482 2526.018369 -60.000000
-1978.469599 2524.018595 -60.000000
-1978.499717 2522.018822 -60.000000
-1978.529834 2520.019049 -60.000000
-1978.559951 2518.019276 -60.000000
-1978.590068 2516.019502 -60.000000
-1978.620185 2514.019729 -60.000000
-1978.650302 2512.019956 -60.000000
-1978.680419 2510.020183 -60.000000
-1978.710536 2508.020410 -60.000000
-1978.740653 2506.020636 -60.000000
-1978.770770 2504.020863 -60.000000
-1978.800887 2502.021090 -60.000000
-1978.831004 2500.021317 -60.000000
-1978.861121 2498.021543 -60.000000
-1978.891238 2496.021770 -60.000000
-1978.921355 2494.021997 -60.000000
-1978.951473 2492.022224 -60.000000
-1978.981590 2490.022450 -60.000000
-1979.011707 2488.022677 -60.000000
-1979.041824 2486.022904 -60.000000
-1979.071941 2484.023131 -60.000000
-1979.102058 2482.023358 -60.000000
-1979.132175 2480.023584 -60.000000
-1979.162292 2478.023811 -60.000000
-1979.192409 2476.024038 -60.000000
-1979.222526 2474.024265 -60.000000
-1979.252643 2472.024491 -60.000000
-1979.282760 2470.024718 -60.000000
-1979.312877 2468.024945 -60.000000
-1979.342994 2466.025172 -60.000000
-1979.373111 2464.025398 -60.000000
-1979.403229 2462.025625 -60.000000
-1979.433346 2460.025852 -60.000000
-1979.463463 2458.026079 -60.000000
-1979.493580 2456.026306 -60.000000
-1979.523697 2454.026532 -60.000000
-1979.553814 2452.026759 -60.000000
-1979.583931 2450.026986 -60.000000
-1979.614048 2448.027213 -60.000000
-1979.644165 2446.027439 -60.000000
-1979.674282 2444.027666 -60.000000
-1979.704399 2442.027893 -60.000000
-1979.734516 2440.028120 -60.000000
-1979.764633 2438.028347 -60.000000
-1979.794750 2436.028573 -60.000000
-1979.824867 2434.028800 -60.000000
-1979.854985 2432.029027 -60.000000
-1979.885102 2430.029254 -60.000000
-1979.915219 2428.029480 -60.000000
-1979.945336 2426.029707 -60.000000
-1979.975453 2424.029934 -60.000000
-1980.005570 2422.030161 -60.000000
-1980.035687 2420.030387 -60.000000
-1980.065804 2418.030614 -60.000000
-1980.095921 2416.030841 -60.000000
-1980.126038 2414.031068 -60.000000
-1980.156155 2412.031295 -60.000000
-1980.186272 2410.031521 -60.000000
-1980.216389 2408.031748 -60.000000
-1980.246506 2406.031975 -60.000000
-1980.276623 2404.032202 -60.000000
-1980.306741 2402.032428 -60.000000
-1980.336858 2400.032655 -60.000000
-1980.366975 2398.032882 -60.000000
-1980.397092 2396.033109 -60.000000
-1980.427209 2394.033336 -60.000000
-1980.457326 2392.033562 -60.000000
-1980.487443 2390.033789 -60.000000
-1980.517560 2388.034016 -60.000000
-1980.547677 2386.034243 -60.000000
-1980.577794 2384.034469 -60.000000
-1980.607911 2382.034696 -60.000000
-1980.638028 2380.034923 -60.000000
-1980.668145 2378.035150 -60.000000
-1980.698262 2376.035376 -60.000000
-1980.728379 2374.035603 -60.000000
-1980.758497 2372.035830 -60.000000
-1980.788614 2370.036057 -60.000000
-1980.818731 2368.036284 -60.000000
-1980.848848 2366.036510 -60.000000
-1980.878965 2364.036737 -60.000000
-1980.909082 2362.036964 -60.000000
-1980.939199 2360.037191 -60.000000
-1980.969316 2358.037417 -60.000000
-1980.999433 2356.037644 -60.000000
-1981.029550 2354.037871 -60.000000
-1981.059667 2352.038098 -60.000000
-1981.089784 2350.038325 -60.000000
-1981.119901 2348.038551 -60.000000
-1981.150018 2346.038778 -60.000000
-1981.180135 2344.039005 -60.000000
-1981.210253 2342.039232 -60.000000
-1981.240370 2340.039458 -60.000000
-1981.270487 2338.039685 -60.000000
-1981.300604 2336.039912 -60.000000
-1981.330721 2334.040139 -60.000000
-1981.360838 2332.040365 -60.000000
-1981.390955 2330.040592 -60.000000
-1981.421072 2328.040819 -60.000000
-1981.451189 2326.041046 -60.000000
-1981.481306 2324.041273 -60.000000
-1981.511423 2322.041499 -60.000000
-1981.541540 2320.041726 -60.000000
-1981.571657 2318.041953 -60.000000
-1981.601774 2316.042180 -60.000000
-1981.631891 2314.042406 -60.000000
-1981.662009 2312.042633 -60.000000
-1981.692126 2310.042860 -60.000000
-1981.722243 2308.043087 -60.000000
-1981.752360 2306.043314 -60.000000
-1981.782477 2304.043540 -60.000000
-1981.812594 2302.043767 -60.000000
-1981.842711 2300.043994 -60.000000
-1981.872828 2298.044221 -60.000000
-1981.902945 2296.044447 -60.000000
-1981.933062 2294.044674 -60.000000
-1981.963179 2292.044901 -60.000000
-1981.993296 2290.045128 -60.000000
-1982.023413 2288.045354 -60.000000
-1982.053530 2286.045581 -60.000000
-1982.083647 2284.045808 -60.000000
-1982.113765 2282.046035 -60.000000
-1982.143882 2280.046262 -60.000000
-1982.173999 2278.046488 -60.000000
-1982.204116 2276.046715 -60.000000
-1982.234233 2274.046942 -60.000000
-1982.264350 2272.047169 -60.000000
-1982.294467 2270.047395 -60.000000
-1982.324584 2268.047622 -60.000000
-1982.354701 2266.047849 -60.000000
-1982.384818 2264.048076 -60.000000
-1982.414935 2262.048302 -60.000000
-1982.445052 2260.048529 -60.000000
-1982.475169 2258.048756 -60.000000
-1982.505286 2256.048983 -60.000000
-1982.535403 2254.049210 -60.000000
-1982.565521 2252.049436 -60.000000
-1982.595638 2250.049663 -60.000000
-1982.625755 2248.049890 -60.000000
-1982.655872 2246.050117 -60.000000
-1982.685989 2244.050343 -60.000000
-1982.716106 2242.050570 -60.000000
-1982.746223 2240.050797 -60.000000
-1982.776340 2238.051024 -60.000000
-1982.806457 2236.051251 -60.000000
-1982.836574 2234.051477 -60.000000
-1982.866691 2232.051704 -60.000000
-1982.896808 2230.051931 -60.000000
-1982.926925 2228.052158 -60.000000
-1982.957042 2226.052384 -60.000000
-1982.987159 2224.052611 -60.000000
-1983.017277 2222.052838 -60.000000
-1983.047394 2220.053065 -60.000000
-1983.077511 2218.053291 -60.000000
-1983.107628 2216.053518 -60.000000
-1983.137745 2214.053745 -60.000000
-1983.167862 2212.053972 -60.000000
-1983.197979 2210.054199 -60.000000
-1983.228096 2208.054425 -60.000000
-1983.258213 2206.054652 -60.000000
-1983.288330 2204.054879 -60.000000
-1983.318447 2202.055106 -60.000000
-1983.348564 2200.055332 -60.000000
-1983.378681 2198.055559 -60.000000
-1983.408798 2196.055786 -60.000000
-1983.438915 2194.056013 -60.000000
-1983.469033 2192.056240 -60.000000
-1983.499150 2190.056466 -60.000000
-1983.529267 2188.056693 -60.000000
-1983.559384 2186.056920 -60.000000
-1983.589501 2184.057147 -60.000000
-1983.619618 2182.057373 -60.000000
-1983.649735 2180.057600 -60.000000
-1983.679852 2178.057827 -60.000000
-1983.709969 2176.058054 -60.000000
-1983.740086 2174.058280 -60.000000
-1983.770203 2172.058507 -60.000000
-1983.800320 2170.058734 -60.000000
-1983.830437 2168.058961 -60.000000
-1983.860554 2166.059188 -60.000000
-1983.890671 2164.059414 -60.000000
-1983.920789 2162.059641 -60.000000
-1983.950906 2160.059868 -60.000000
-1983.981023 2158.060095 -60.000000
-1984.011140 2156.060321 -60.000000
-1984.041257 2154.060548 -60.000000
-1984.071374 2152.060775 -60.000000
-1984.101491 2150.061002 -60.000000
-1984.131608 2148.061229 -60.000000
-1984.161725 2146.061455 -60.000000
-1984.191842 2144.061682 -60.000000
-1984.221959 2142.061909 -60.000000
-1984.252076 2140.062136 -60.000000
-1984.282193 2138.062362 -60.000000
-1984.312310 2136.062589 -60.000000
-1984.342427 2134.062816 -60.000000
-1984.372545 2132.063043 -60.000000
-1984.402662 2130.063269 -60.000000
-1984.432779 2128.063496 -60.000000
-1984.462896 2126.063723 -60.000000
-1984.493013 2124.063950 -60.000000
-1984.523130 2122.064177 -60.000000
-1984.553247 2120.064403 -60.000000
-1984.583364 2118.064630 -60.000000
-1984.613481 2116.064857 -60.000000
-1984.643598 2114.065084 -60.000000
-1984.673715 2112.065310 -60.000000
-1984.703832 2110.065537 -60.000000
-1984.733949 2108.065764 -60.000000
-1984.764066 2106.065991 -60.000000
-1984.794183 2104.066218 -60.000000
-1984.824301 2102.066444 -60.000000
-1984.854418 2100.066671 -60.000000
-1984.884535 2098.066898 -60.000000
-1984.914652 2096.067125 -60.000000
-1984.944769 2094.067351 -60.000000
-1984.974886 2092.067578 -60.000000
-1985.005003 2090.067805 -60.000000
-1985.035120 2088.068032 -60.000000
-1985.065237 2086.068258 -60.000000
-1985.095354 2084.068485 -60.000000
-1985.125471 2082.068712 -60.000000
-1985.155588 2080.068939 -60.000000
-1985.185705 2078.069166 -60.000000
-1985.215822 2076.069392 -60.000000
-1985.245939 2074.069619 -60.000000
-1985.276057 2072.069846 -60.000000
-1985.306174 2070.070073 -60.000000
-1985.336291 2068.070299 -60.000000
-1985.366408 2066.070526 -60.000000
-1985.396525 2064.070753 -60.000000
-1985.426642 2062.070980 -60.000000
-1985.456759 2060.071206 -60.000000
-1985.486876 2058.071433 -60.000000
-1985.516993 2056.071660 -60.000000
-1985.547110 2054.071887 -60.000000
-1985.577227 2052.072114 -60.000000
-1985.607344 2050.072340 -60.000000
-1985.637461 2048.072567 -60.000000
-1985.667578 2046.072794 -60.000000
-1985.697695 2044.073021 -60.000000
-1985.727813 2042.073247 -60.000000
-1985.757930 2040.073474 -60.000000
-1985.788047 2038.073701 -60.000000
-1985.818164 2036.073928 -60.000000
-1985.848281 2034.074155 -60.000000
-1985.878398 2032.074381 -60.000000
-1985.908515 2030.074608 -60.000000
-1985.938632 2028.074835 -60.000000
-1985.968749 2026.075062 -60.000000
-1985.998866 2024.075288 -60.000000
-1986.028983 2022.075515 -60.000000
-1986.059100 2020.075742 -60.000000
-1986.089217 2018.075969 -60.000000
-1986.119334 2016.076195 -60.000000
-1986.149451 2014.076422 -60.000000
-1986.179569 2012.076649 -60.000000
-1986.209686 2010.076876 -60.000000
-1986.239803 2008.077103 -60.000000
-1986.269920 2006.077329 -60.000000
-1986.300037 2004.077556 -60.000000
-1986.330154 2002.077783 -60.000000
-1986.360271 2000.078010 -60.000000
-1986.390388 1998.078236 -60.000000
-1986.420505 1996.078463 -60.000000
-1986.450622 1994.078690 -60.000000
-1986.480739 1992.078917 -60.000000
-1986.510856 1990.079144 -60.000000
-1986.540973 1988.079370 -60.000000
-1986.571090 1986.079597 -60.000000
-1986.601207 1984.079824 -60.000000
-1986.631325 1982.080051 -60.000000
-1986.661442 1980.080277 -60.000000
-1986.691559 1978.080504 -60.000000
-1986.721676 1976.080731 -60.000000
-1986.751793 1974.080958 -60.000000
-1986.781910 1972.081184 -60.000000
-1986.812027 1970.081411 -60.000000
-1986.842144 1968.081638 -60.000000
-1986.872261 1966.081865 -60.000000
-1986.902378 1964.082092 -60.000000
-1986.932495 1962.082318 -60.000000
-1986.962612 1960.082545 -60.000000
-1986.992729 1958.082772 -60.000000
-1987.022846 1956.082999 -60.000000
-1987.052963 1954.083225 -60.000000
-1987.083081 1952.083452 -60.000000
-1987.113198 1950.083679 -60.000000
-1987.143315 1948.083906 -60.000000
-1987.173432 1946.084133 -60.000000
-1987.203549 1944.084359 -60.000000
-1987.233666 1942.084586 -60.000000
-1987.263783 1940.084813 -60.000000
-1987.293900 1938.085040 -60.000000
-1987.324017 1936.085266 -60.000000
-1987.354134 1934.085493 -60.000000
-1987.384251 1932.085720 -60.000000
-1987.414368 1930.085947 -60.000000
-1987.444485 1928.086173 -60.000000
-1987.474602 1926.086400 -60.000000
-1987.504719 1924.086627 -60.000000
-1987.534837 1922.086854 -60.000000
-1987.564954 1920.087081 -60.000000
-1987.595071 1918.087307 -60.000000
-1987.625188 1916.087534 -60.000000
-1987.655305 1914.087761 -60.000000
-1987.685422 1912.087988 -60.000000
-1987.715539 1910.088214 -60.000000
-1987.745656 1908.088441 -60.000000
-1987.775773 1906.088668 -60.000000
-1987.805890 1904.088895 -60.000000
-1987.836007 1902.089122 -60.000000
-1987.866124 1900.089348 -60.000000
-1987.896241 1898.089575 -60.000000
-1987.926358 1896.089802 -60.000000
-1987.956475 1894.090029 -60.000000
-1987.986593 1892.090255 -60.000000
-1988.016710 1890.090482 -60.000000
-1988.046827 1888.090709 -60.000000
-1988.076944 1886.090936 -60.000000
-1988.107061 1884.091162 -60.000000
-1988.137178 1882.091389 -60.000000
-1988.167295 1880.091616 -60.000000
-1988.197412 1878.091843 -60.000000
-1988.227529 1876.092070 -60.000000
-1988.257646 1874.092296 -60.000000
-1988.287763 1872.092523 -60.000000
-1988.317880 1870.092750 -60.000000
-1988.347997 1868.092977 -60.000000
-1988.378114 1866.093203 -60.000000
-1988.408231 1864.093430 -60.000000
-1988.438349 1862.093657 -60.000000
-1988.468466 1860.093884 -60.000000
-1988.498583 1858.094110 -60.000000
-1988.528700 1856.094337 -60.000000
-1988.558817 1854.094564 -60.000000
-1988.588934 1852.094791 -60.000000
-1988.619051 1850.095018 -60.000000
-1988.649168 1848.095244 -60.000000
-1988.679285 1846.095471 -60.000000
-1988.709402 1844.095698 -60.000000
-1988.739519 1842.095925 -60.000000
-1988.769636 1840.096151 -60.000000
-1988.799753 1838.096378 -60.000000
-1988.829870 1836.096605 -60.000000
-1988.859987 1834.096832 -60.000000
-1988.890105 1832.097059 -60.000000
-1988.920222 1830.097285 -60.000000
-1988.950339 1828.097512 -60.000000
-1988.980456 1826.097739 -60.000000
-1989.010573 1824.097966 -60.000000
-1989.040690 1822.098192 -60.000000
-1989.070807 1820.098419 -60.000000
-1989.100924 1818.098646 -60.000000
-1989.131041 1816.098873 -60.000000
-1989.161158 1814.099099 -60.000000
-1989.191275 1812.099326 -60.000000
-1989.221392 1810.099553 -60.000000
-1989.251509 1808.099780 -60.000000
-1989.281626 1806.100007 -60.000000
-1989.311743 1804.100233 -60.000000
-1989.341861 1802.100460 -60.000000
-1989.371978 1800.100687 -60.000000
-1989.402095 1798.100914 -60.000000
-1989.432212 1796.101140 -60.000000
-1989.462329 1794.101367 -60.000000
-1989.492446 1792.101594 -60.000000
-1989.522563 1790.101821 -60.000000
-1989.552680 1788.102048 -60.000000
-1989.582797 1786.102274 -60.000000
-1989.612914 1784.102501 -60.000000
-1989.643031 1782.102728 -60.000000
-1989.673148 1780.102955 -60.000000
-1989.703265 1778.103181 -60.000000
-1989.733382 1776.103408 -60.000000
-1989.763499 1774.103635 -60.000000
-1989.793617 1772.103862 -60.000000
-1989.823734 1770.104088 -60.000000
-1989.853851 1768.104315 -60.000000
-1989.883968 1766.104542 -60.000000
-1989.914085 1764.104769 -60.000000
-1989.944202 1762.104996 -60.000000
-1989.974319 1760.105222 -60.000000
-1990.004436 1758.105449 -60.000000
-1990.034553 1756.105676 -60.000000
-1990.064670 1754.105903 -60.000000
-1990.094787 1752.106129 -60.000000
-1990.124904 1750.106356 -60.000000
-1990.155021 1748.106583 -60.000000
-1990.185138 1746.106810 -60.000000
-1990.215255 1744.107037 -60.000000
-1990.245373 1742.107263 -60.000000
-1990.275490 1740.107490 -60.000000
-1990.305607 1738.107717 -60.000000
-1990.335724 1736.107944 -60.000000
-1990.365841 1734.108170 -60.000000
-1990.395958 1732.108397 -60.000000
-1990.426075 1730.108624 -60.000000
-1990.456192 1728.108851 -60.000000
-1990.486309 1726.109077 -60.000000
-1990.516426 1724.109304 -60.000000
-1990.546543 1722.109531 -60.000000
-1990.576660 1720.109758 -60.000000
-1990.606777 1718.109985 -60.000000
-1990.636894 1716.110211 -60.000000
-1990.667011 1714.110438 -60.000000
-1990.697129 1712.110665 -60.000000
-1990.727246 1710.110892 -60.000000
-1990.757363 1708.111118 -60.000000
-1990.787480 1706.111345 -60.000000
-1990.817597 1704.111572 -60.000000
-1990.847714 1702.111799 -60.000000
-1990.877831 1700.112026 -60.000000
-1990.907948 1698.112252 -60.000000
-1990.938065 1696.112479 -60.000000
-1990.968182 1694.112706 -60.000000
-1990.998299 1692.112933 -60.000000
-1991.028416 1690.113159 -60.000000
-1991.058533 1688.113386 -60.000000
-1991.088650 1686.113613 -60.000000
-1991.118767 1684.113840 -60.000000
-1991.148885 1682.114066 -60.000000
-1991.179002 1680.114293 -60.000000
-1991.209119 1678.114520 -60.000000
-1991.239236 1676.114747 -60.000000
-1991.269353 1674.114974 -60.000000
-1991.299470 1672.115200 -60.000000
-1991.329587 1670.115427 -60.000000
-1991.359704 1668.115654 -60.000000
-1991.389821 1666.115881 -60.000000
-1991.419938 1664.116107 -60.000000
-1991.450055 1662.116334 -60.000000
-1991.480172 1660.116561 -60.000000
-1991.510289 1658.116788 -60.000000
-1991.540406 1656.117014 -60.000000
-1991.570523 1654.117241 -60.000000
-1991.600641 1652.117468 -60.000000
-1991.630758 1650.117695 -60.000000
-1991.660875 1648.117922 -60.000000
-1991.690992 1646.118148 -60.000000
-1991.721109 1644.118375 -60.000000
-1991.751226 1642.118602 -60.000000
-1991.781343 1640.118829 -60.000000
-1991.811460 1638.119055 -60.000000
-1991.841577 1636.119282 -60.000000
-1991.871694 1634.119509 -60.000000
-1991.901811 1632.119736 -60.000000
-1991.931928 1630.119963 -60.000000
-1991.962045 1628.120189 -60.000000
-1991.992162 1626.120416 -60.000000
-1992.022279 1624.120643 -60.000000
-1992.052397 1622.120870 -60.000000
-1992.082514 1620.121096 -60.000000
-1992.112631 1618.121323 -60.000000
-1992.142748 1616.121550 -60.000000
-1992.172865 1614.121777 -60.000000
-1992.202982 1612.122003 -60.000000
-1992.233099 1610.122230 -60.000000
-1992.263216 1608.122457 -60.000000
-1992.293333 1606.122684 -60.000000
-1992.323450 1604.122911 -60.000000
-1992.353567 1602.123137 -60.000000
-1992.383684 1600.123364 -60.000000
-1992.413801 1598.123591 -60.000000
-1992.443918 1596.123818 -60.000000
-1992.474035 1594.124044 -60.000000
-1992.504153 1592.124271 -60.000000
-1992.534270 1590.124498 -60.000000
-1992.564387 1588.124725 -60.000000
-1992.594504 1586.124952 -60.000000
-1992.624621 1584.125178 -60.000000
-1992.654738 1582.125405 -60.000000
-1992.684855 1580.125632 -60.000000
-1992.714972 1578.125859 -60.000000
-1992.745089 1576.126085 -60.000000
-1992.775206 1574.126312 -60.000000
-1992.805323 1572.126539 -60.000000
-1992.835440 1570.126766 -60.000000
-1992.865557 1568.126992 -60.000000
-1992.895674 1566.127219 -60.000000
-1992.925791 1564.127446 -60.000000
-1992.955909 1562.127673 -60.000000
-1992.986026 1560.127900 -60.000000
-1993.016143 1558.128126 -60.000000
-1993.046260 1556.128353 -60.000000
-1993.076377 1554.128580 -60.000000
-1993.106494 1552.128807 -60.000000
-1993.136611 1550.129033 -60.000000
-1993.166728 1548.129260 -60.000000
-1993.196845 1546.129487 -60.000000
-1993.226962 1544.129714 -60.000000
-1993.257079 1542.129941 -60.000000
-1993.287196 1540.130167 -60.000000
-1993.317313 1538.130394 -60.000000
-1993.347430 1536.130621 -60.000000
-1993.377547 1534.130848 -60.000000
-1993.407665 1532.131074 -60.000000
-1993.437782 1530.131301 -60.000000
-1993.467899 1528.131528 -60.000000
-1993.498016 1526.131755 -60.000000
-1993.528133 1524.131981 -60.000000
-1993.558250 1522.132208 -60.000000
-1993.588367 1520.132435 -60.000000
-1993.618484 1518.132662 -60.000000
-1993.648601 1516.132889 -60.000000
-1993.678718 1514.133115 -60.000000
-1993.708835 1512.133342 -60.000000
-1993.738952 1510.133569 -60.000000
-1993.769069 1508.133796 -60.000000
-1993.799186 1506.134022 -60.000000
-1993.829303 1504.134249 -60.000000
-1993.859421 1502.134476 -60.000000
-1993.889538 1500.134703 -60.000000
-1993.919655 1498.134930 -60.000000
-1993.949772 1496.135156 -60.000000
-1993.979889 1494.135383 -60.000000
-1994.010006 1492.135610 -60.000000
-1994.040123 1490.135837 -60.000000
-1994.070240 1488.136063 -60.000000
-1994.100357 1486.136290 -60.000000
-1994.130474 1484.136517 -60.000000
-1994.160591 1482.136744 -60.000000
-1994.190708 1480.136970 -60.000000
-1994.220825 1478.137197 -60.000000
-1994.250942 1476.137424 -60.000000
-1994.281059 1474.137651 -60.000000
-1994.311177 1472.137878 -60.000000
-1994.341294 1470.138104 -60.000000
-1994.371411 1468.138331 -60.000000
-1994.401528 1466.138558 -60.000000
-1994.431645 1464.138785 -60.000000
-1994.461762 1462.139011 -60.000000
-1994.491879 1460.139238 -60.000000
-1994.521996 1458.139465 -60.000000
-1994.552113 1456.139692 -60.000000
-1994.582230 1454.139918 -60.000000
-1994.612347 1452.140145 -60.000000
-1994.642464 1450.140372 -60.000000
-1994.672581 1448.140599 -60.000000
-1994.702698 1446.140826 -60.000000
-1994.732815 1444.141052 -60.000000
-1994.762933 1442.141279 -60.000000
-1994.793050 1440.141506 -60.000000
-1994.823167 1438.141733 -60.000000
-1994.853284 1436.141959 -60.000000
-1994.883401 1434.142186 -60.000000
-1994.913518 1432.142413 -60.000000
-1994.943635 1430.142640 -60.000000
-1994.973752 1428.142867 -60.000000
-1995.003869 1426.143093 -60.000000
-1995.033986 1424.143320 -60.000000
-1995.064103 1422.143547 -60.000000
-1995.094220 1420.143774 -60.000000
-1995.124337 1418.144000 -60.000000
-1995.154454 1416.144227 -60.000000
-1995.184571 1414.144454 -60.000000
-1995.214689 1412.144681 -60.000000
-1995.244806 1410.144907 -60.000000
-1995.274923 1408.145134 -60.000000
-1995.305040 1406.145361 -60.000000
-1995.335157 1404.145588 -60.000000
-1995.365274 1402.145815 -60.000000
-1995.395391 1400.146041 -60.000000
-1995.425508 1398.146268 -60.000000
-1995.455625 1396.146495 -60.000000
-1995.485742 1394.146722 -60.000000
-1995.515859 1392.146948 -60.000000
-1995.545976 1390.147175 -60.000000
-1995.576093 1388.147402 -60.000000
-1995.606210 1386.147629 -60.000000
-1995.636327 1384.147856 -60.000000
-1995.666445 1382.148082 -60.000000
-1995.696562 1380.148309 -60.000000
-1995.726679 1378.148536 -60.000000
-1995.756796 1376.148763 -60.000000
-1995.786913 1374.148989 -60.000000
-1995.817030 1372.149216 -60.000000
-1995.847147 1370.149443 -60.000000
-1995.877264 1368.149670 -60.000000
-1995.907381 1366.149896 -60.000000
-1995.937498 1364.150123 -60.000000
-1995.967615 1362.150350 -60.000000
-1995.997732 1360.150577 -60.000000
-1996.027849 1358.150804 -60.000000
-1996.057966 1356.151030 -60.000000
-1996.088083 1354.151257 -60.000000
-1996.118201 1352.151484 -60.000000
-1996.148318 1350.151711 -60.000000
-1996.178435 1348.151937 -60.000000
-1996.208552 1346.152164 -60.000000
-1996.238669 1344.152391 -60.000000
-1996.268786 1342.152618 -60.000000
-1996.298903 1340.152845 -60.000000
-1996.329020 1338.153071 -60.000000
-1996.359137 1336.153298 -60.000000
-1996.389254 1334.153525 -60.000000
-1996.419371 1332.153752 -60.000000
-1996.449488 1330.153978 -60.000000
-1996.479605 1328.154205 -60.000000
-1996.509722 1326.154432 -60.000000
-1996.539839 1324.154659 -60.000000
-1996.569957 1322.154885 -60.000000
-1996.600074 1320.155112 -60.000000
-1996.630191 1318.155339 -60.000000
-1996.660308 1316.155566 -60.000000
-1996.690425 1314.155793 -60.000000
-1996.720542 1312.156019 -60.000000
-1996.750659 1310.156246 -60.000000
-1996.780776 1308.156473 -60.000000
-1996.810893 1306.156700 -60.000000
-1996.841010 1304.156926 -60.000000
-1996.871127 1302.157153 -60.000000
-1996.901244 1300.157380 -60.000000
-1996.931361 1298.157607 -60.000000
-1996.961478 1296.157834 -60.000000
-1996.991595 1294.158060 -60.000000
-1997.021713 1292.158287 -60.000000
-1997.051830 1290.158514 -60.000000
-1997.081947 1288.158741 -60.000000
-1997.112064 1286.158967 -60.000000
-1997.142181 1284.159194 -60.000000
-1997.172298 1282.159421 -60.000000
-1997.202415 1280.159648 -60.000000
-1997.232532 1278.159874 -60.000000
-1997.262649 1276.160101 -60.000000
-1997.292766 1274.160328 -60.000000
-1997.322883 1272.160555 -60.000000
-1997.353000 1270.160782 -60.000000
-1997.383117 1268.161008 -60.000000
-1997.413234 1266.161235 -60.000000
-1997.443351 1264.161462 -60.000000
-1997.473469 1262.161689 -60.000000
-1997.503586 1260.161915 -60.000000
-1997.533703 1258.162142 -60.000000
-1997.563820 1256.162369 -60.000000
-1997.593937 1254.162596 -60.000000
-1997.624054 1252.162822 -60.000000
-1997.654171 1250.163049 -60.000000
-1997.684288 1248.163276 -60.000000
-1997.714405 1246.163503 -60.000000
-1997.744522 1244.163730 -60.000000
-1997.774639 1242.163956 -60.000000
-1997.804756 1240.164183 -60.000000
-1997.834873 1238.164410 -60.000000
-1997.864990 1236.164637 -60.000000
-1997.895107 1234.164863 -60.000000
-1997.925225 1232.165090 -60.000000
-1997.955342 1230.165317 -60.000000
-1997.985459 1228.165544 -60.000000
-1998.015576 1226.165771 -60.000000
-1998.045693 1224.165997 -60.000000
-1998.075810 1222.166224 -60.000000
-1998.105927 1220.166451 -60.000000
-1998.136044 1218.166678 -60.000000
-1998.166161 1216.166904 -60.000000
-1998.196278 1214.167131 -60.000000
-1998.226395 1212.167358 -60.000000
-1998.256512 1210.167585 -60.000000
-1998.286629 1208.167811 -60.000000
-1998.316746 1206.168038 -60.000000
-1998.346863 1204.168265 -60.000000
-1998.376981 1202.168492 -60.000000
-1998.407098 1200.168719 -60.000000
-1998.437215 1198.168945 -60.000000
-1998.467332 1196.169172 -60.000000
-1998.497449 1194.169399 -60.000000
-1998.527566 1192.169626 -60.000000
-1998.557683 1190.169852 -60.000000
-1998.587800 1188.170079 -60.000000
-1998.617917 1186.170306 -60.000000
-1998.648034 1184.170533 -60.000000
-1998.678151 1182.170760 -60.000000
-1998.708268 1180.170986 -60.000000
-1998.738385 1178.171213 -60.000000
-1998.768502 1176.171440 -60.000000
-1998.798619 1174.171667 -60.000000
-1998.828737 1172.171893 -60.000000
-1998.858854 1170.172120 -60.000000
-1998.888971 1168.172347 -60.000000
-1998.919088 1166.172574 -60.000000
-1998.949205 1164.172800 -60.000000
-1998.979322 1162.173027 -60.000000
-1999.009439 1160.173254 -60.000000
-1999.039556 1158.173481 -60.000000
-1999.069673 1156.173708 -60.000000
-1999.099790 1154.173934 -60.000000
-1999.129907 1152.174161 -60.000000
-1999.160024 1150.174388 -60.000000
-1999.190141 1148.174615 -60.000000
-1999.220258 1146.174841 -60.000000
-1999.250375 1144.175068 -60.000000
-1999.280493 1142.175295 -60.000000
-1999.310610 1140.175522 -60.000000
-1999.340727 1138.175749 -60.000000
-1999.370844 1136.175975 -60.000000
-1999.400961 1134.176202 -60.000000
-1999.431078 1132.176429 -60.000000
-1999.461195 1130.176656 -60.000000
-1999.491312 1128.176882 -60.000000
-1999.521429 1126.177109 -60.000000
-1999.551546 1124.177336 -60.000000
-1999.581663 1122.177563 -60.000000
-1999.611780 1120.177789 -60.000000
-1999.641897 1118.178016 -60.000000
-1999.672014 1116.178243 -60.000000
-1999.702131 1114.178470 -60.000000
-1999.732249 1112.178697 -60.000000
-1999.762366 1110.178923 -60.000000
-1999.792483 1108.179150 -60.000000
-1999.822600 1106.179377 -60.000000
-1999.852717 1104.179604 -60.000000
-1999.882834 1102.179830 -60.000000
-1999.912951 1100.180057 -60.000000
-1999.943068 1098.180284 -60.000000
-1999.973185 1096.180511 -60.000000
-2000.003302 1094.180738 -60.000000
-2000.033419 1092.180964 -60.000000
-2000.063536 1090.181191 -60.000000
-2000.093653 1088.181418 -60.000000
-2000.123770 1086.181645 -60.000000
-2000.153887 1084.181871 -60.000000
-2000.184005 1082.182098 -60.000000
-2000.214122 1080.182325 -60.000000
-2000.244239 1078.182552 -60.000000
-2000.274356 1076.182778 -60.000000
-2000.304473 1074.183005 -60.000000
-2000.334590 1072.183232 -60.000000
-2000.364707 1070.183459 -60.000000
-2000.394824 1068.183686 -60.000000
-2000.424941 1066.183912 -60.000000
-2000.455058 1064.184139 -60.000000
-2000.485175 1062.184366 -60.000000
-2000.515292 1060.184593 -60.000000
-2000.545409 1058.184819 -60.000000
-2000.575526 1056.185046 -60.000000
-2000.605643 1054.185273 -60.000000
-2000.635761 1052.185500 -60.000000
-2000.665878 1050.185726 -60.000000
-2000.695995 1048.185953 -60.000000
-2000.726112 1046.186180 -60.000000
-2000.756229 1044.186407 -60.000000
-2000.786346 1042.186634 -60.000000
-2000.816463 1040.186860 -60.000000
-2000.846580 1038.187087 -60.000000
-2000.876697 1036.187314 -60.000000
-2000.906814 1034.187541 -60.000000
-2000.936931 1032.187767 -60.000000
-2000.967048 1030.187994 -60.000000
-2000.997165 1028.188221 -60.000000
-2001.027282 1026.188448 -60.000000
-2001.057399 1024.188675 -60.000000
