-3604.000000 170.000000 536.000000
-3604.000000 168.000000 536.000000
-3604.000000 166.000000 536.000000
-3604.000000 164.000000 536.000000
-3604.000000 162.000000 536.000000
-3604.000000 160.000000 536.000000
-3604.000000 158.000000 536.000000
-3604.000000 156.000000 536.000000
-3604.000000 154.000000 536.000000
-3604.000000 152.000000 536.000000
-3604.000000 150.000000 536.000000
-3604.000000 148.000000 536.000000
-3604.000000 146.000000 536.000000
-3604.000000 144.000000 536.000000
-3604.000000 142.000000 536.000000
-3604.000000 140.000000 536.000000
-3604.000000 138.000000 536.000000
-3604.000000 136.000000 536.000000
-3604.000000 134.000000 536.000000
-3604.000000 132.000000 536.000000
-3604.000000 130.000000 536.000000
-3604.000000 128.000000 536.000000
-3604.000000 126.000000 536.000000
-3604.000000 124.000000 536.000000
-3604.000000 122.000000 536.000000
-3604.000000 120.000000 536.000000
-3604.000000 118.000000 536.000000
-3604.000000 116.000000 536.000000
-3604.000000 114.000000 536.000000
-3604.000000 112.000000 536.000000
-3604.000000 110.000000 536.000000
-3604.000000 108.000000 536.000000
-3604.000000 106.000000 536.000000
-3604.000000 104.000000 536.000000
-3604.000000 102.000000 536.000000
-3604.000000 100.000000 536.000000
-3604.000000 98.000000 536.000000
-3604.000000 96.000000 536.000000
-3604.000000 94.000000 536.000000
-3604.000000 92.000000 536.000000
-3604.000000 90.000000 536.000000
-3604.000000 88.000000 536.000000
-3604.000000 86.000000 536.000000
-3604.000000 84.000000 536.000000
-3604.000000 82.000000 536.000000
-3604.000000 80.000000 536.000000
-3604.000000 78.000000 536.000000
-3604.000000 76.000000 536.000000
-3604.000000 74.000000 536.000000
-3604.000000 72.000000 536.000000
-3604.000000 70.000000 536.000000
-3604.000000 68.000000 536.000000
-3604.000000 66.000000 536.000000
-3604.000000 64.000000 536.000000
-3604.000000 62.000000 536.000000
-3604.000000 60.000000 536.000000
-3604.000000 58.000000 536.000000
-3604.000000 56.000000 536.000000
-3604.000000 54.000000 536.000000
-3604.000000 52.000000 536.000000
-3604.000000 50.000000 536.000000
-3604.000000 48.000000 536.000000
-3604.000000 46.000000 536.000000
-3604.000000 44.000000 536.000000
-3604.000000 42.000000 536.000000
-3604.000000 40.000000 536.000000
-3604.000000 38.000000 536.000000
-3604.000000 36.000000 536.000000
-3604.000000 34.000000 536.000000
-3604.000000 32.000000 536.000000
-3604.000000 30.000000 536.000000
-3604.000000 28.000000 536.000000
-3604.000000 26.000000 536.000000
-3604.000000 24.000000 536.000000
-3604.000000 22.000000 536.000000
-3604.000000 20.000000 536.000000
-3604.000000 18.000000 536.000000
-3604.000000 16.000000 536.000000
-3604.000000 14.000000 536.000000
-3604.000000 12.000000 536.000000
-3604.000000 10.000000 536.000000
-3604.000000 8.000000 536.000000
-3604.000000 6.000000 536.000000
-3604.000000 4.000000 536.000000
-3604.000000 2.000000 536.000000
-3604.000000 0.000000 536.000000
-3604.000000 -2.000000 536.000000
-3604.000000 -4.000000 536.000000
-3604.000000 -6.000000 536.000000
-3604.000000 -8.000000 536.000000
-3604.000000 -10.000000 536.000000
-3604.000000 -12.000000 536.000000
-3604.000000 -14.000000 536.000000
-3604.000000 -16.000000 536.000000
-3604.000000 -18.000000 536.000000
-3604.000000 -20.000000 536.000000
-3604.000000 -22.000000 536.000000
-3604.000000 -24.000000 536.000000
-3604.000000 -26.000000 536.000000
-3604.000000 -28.000000 536.000000
-3604.000000 -30.000000 536.000000
-3604.000000 -32.000000 536.000000
-3604.000000 -34.000000 536.000000
-3604.000000 -36.000000 536.000000
-3604.000000 -38.000000 536.000000
-3604.000000 -40.000000 536.000000
-3604.000000 -42.000000 536.000000
-3604.000000 -44.000000 536.000000
-3604.000000 -46.000000 536.000000
-3604.000000 -48.000000 536.000000
-3604.000000 -50.000000 536.000000
-3604.000000 -52.000000 536.000000
-3604.000000 -54.000000 536.000000
-3604.000000 -56.000000 536.000000
-3604.000000 -58.000000 536.000000
-3604.000000 -60.000000 536.000000
-3604.000000 -62.000000 536.000000
-3604.000000 -64.000000 536.000000
-3604.000000 -66.000000 536.000000
-3604.000000 -68.000000 536.000000
-3604.000000 -70.000000 536.000000
-3604.000000 -72.000000 536.000000
-3604.000000 -74.000000 536.000000
-3604.000000 -76.000000 536.000000
-3604.000000 -78.000000 536.000000
-3604.000000 -80.000000 536.000000
-3604.000000 -82.000000 536.000000
-3604.000000 -84.000000 536.000000
-3604.000000 -86.000000 536.000000
-3604.000000 -88.000000 536.000000
-3604.000000 -90.000000 536.000000
-3604.000000 -92.000000 536.000000
-3604.000000 -94.000000 536.000000
-3604.000000 -96.000000 536.000000
-3604.000000 -98.000000 536.000000
-3604.000000 -100.000000 536.000000
-3604.000000 -102.000000 536.000000
-3604.000000 -104.000000 536.000000
-3604.000000 -106.000000 536.000000
-3604.000000 -108.000000 536.000000
-3604.000000 -110.000000 536.000000
-3604.000000 -112.000000 536.000000
-3604.000000 -114.000000 536.000000
-3604.000000 -116.000000 536.000000
-3604.000000 -118.000000 536.000000
-3604.000000 -120.000000 536.000000
-3604.000000 -122.000000 536.000000
-3604.000000 -124.000000 536.000000
-3604.000000 -126.000000 536.000000
-3604.000000 -128.000000 536.000000
-3604.000000 -130.000000 536.000000
-3604.000000 -132.000000 536.000000
-3604.000000 -134.000000 536.000000
-3604.000000 -136.000000 536.000000
-3604.000000 -138.000000 536.000000
-3604.000000 -140.000000 536.000000
-3604.000000 -142.000000 536.000000
-3604.000000 -144.000000 536.000000
-3604.000000 -146.000000 536.000000
-3604.000000 -148.000000 536.000000
-3604.000000 -150.000000 536.000000
-3604.000000 -152.000000 536.000000
-3604.000000 -154.000000 536.000000
-3604.000000 -156.000000 536.000000
-3604.000000 -158.000000 536.000000
-3604.000000 -160.000000 536.000000
-3604.000000 -162.000000 536.000000
-3604.000000 -164.000000 536.000000
-3604.000000 -166.000000 536.000000
-3604.000000 -168.000000 536.000000
-3604.000000 -170.000000 536.000000
-3604.000000 -172.000000 536.000000
-3604.000000 -174.000000 536.000000
-3604.000000 -176.000000 536.000000
-3604.000000 -178.000000 536.000000
-3604.000000 -180.000000 536.000000
-3604.000000 -182.000000 536.000000
-3604.000000 -184.000000 536.000000
-3604.000000 -186.000000 536.000000
-3604.000000 -188.000000 536.000000
-3604.000000 -190.000000 536.000000
-3604.000000 -192.000000 536.000000
-3604.000000 -194.000000 536.000000
-3604.000000 -196.000000 536.000000
-3604.000000 -198.000000 536.000000
-3604.000000 -200.000000 536.000000
-3604.000000 -202.000000 536.000000
-3604.000000 -204.000000 536.000000
-3604.000000 -206.000000 536.000000
-3604.000000 -208.000000 536.000000
-3604.000000 -210.000000 536.000000
-3604.000000 -212.000000 536.000000
-3604.000000 -214.000000 536.000000
-3604.000000 -216.000000 536.000000
-3604.000000 -218.000000 536.000000
-3604.000000 -220.000000 536.000000
-3604.000000 -222.000000 536.000000
-3604.000000 -224.000000 536.000000
-3604.000000 -226.000000 536.000000
-3604.000000 -228.000000 536.000000
-3604.000000 -230.000000 536.000000
-3604.000000 -232.000000 536.000000
-3604.000000 -234.000000 536.000000
-3604.000000 -236.000000 536.000000
-3604.000000 -238.000000 536.000000
-3604.000000 -240.000000 536.000000
-3604.000000 -242.000000 536.000000
-3604.000000 -244.000000 536.000000
-3604.000000 -246.000000 536.000000
-3604.000000 -248.000000 536.000000
-3604.000000 -250.000000 536.000000
-3604.000000 -252.000000 536.000000
-3604.000000 -254.000000 536.000000
-3604.000000 -256.000000 536.000000
-3604.000000 -258.000000 536.000000
-3604.000000 -260.000000 536.000000
-3604.000000 -262.000000 536.000000
-3604.000000 -264.000000 536.000000
-3604.000000 -266.000000 536.000000
-3604.000000 -268.000000 536.000000
-3604.000000 -270.000000 536.000000
-3604.000000 -272.000000 536.000000
-3604.000000 -274.000000 536.000000
-3604.000000 -276.000000 536.000000
-3604.000000 -278.000000 536.000000
-3604.000000 -280.000000 536.000000
-3604.000000 -282.000000 536.000000
-3604.000000 -284.000000 536.000000
-3604.000000 -286.000000 536.000000
-3604.000000 -288.000000 536.000000
-3604.000000 -290.000000 536.000000
-3604.000000 -292.000000 536.000000
-3604.000000 -294.000000 536.000000
-3604.000000 -296.000000 536.000000
-3604.000000 -298.000000 536.000000
-3604.000000 -300.000000 536.000000
-3604.000000 -302.000000 536.000000
-3604.000000 -304.000000 536.000000
-3604.000000 -306.000000 536.000000
-3604.000000 -308.000000 536.000000
-3604.000000 -310.000000 536.000000
-3604.000000 -312.000000 536.000000
-3604.000000 -314.000000 536.000000
-3604.000000 -316.000000 536.000000
-3604.000000 -318.000000 536.000000
-3604.000000 -320.000000 536.000000
-3604.000000 -322.000000 536.000000
-3604.000000 -324.000000 536.000000
-3604.000000 -326.000000 536.000000
-3604.000000 -328.000000 536.000000
-3604.000000 -330.000000 536.000000
-3604.000000 -332.000000 536.000000
-3604.000000 -334.000000 536.000000
-3604.000000 -336.000000 536.000000
-3604.000000 -338.000000 536.000000
-3604.000000 -340.000000 536.000000
-3604.000000 -342.000000 536.000000
-3604.000000 -344.000000 536.000000
-3604.000000 -346.000000 536.000000
-3604.000000 -348.000000 536.000000
-3604.000000 -350.000000 536.000000
-3604.000000 -352.000000 536.000000
-3604.000000 -354.000000 536.000000
-3604.000000 -356.000000 536.000000
-3604.000000 -358.000000 536.000000
-3604.000000 -360.000000 536.000000
-3604.000000 -362.000000 536.000000
-3604.000000 -364.000000 536.000000
-3604.000000 -366.000000 536.000000
-3604.000000 -368.000000 536.000000
-3604.000000 -370.000000 536.000000
-3604.000000 -372.000000 536.000000
-3604.000000 -374.000000 536.000000
-3604.000000 -376.000000 536.000000
-3604.000000 -378.000000 536.000000
-3604.000000 -380.000000 536.000000
-3604.000000 -382.000000 536.000000
-3604.000000 -384.000000 536.000000
-3604.000000 -386.000000 536.000000
-3604.000000 -388.000000 536.000000
-3604.000000 -390.000000 536.000000
-3604.000000 -392.000000 536.000000
-3604.000000 -394.000000 536.000000
-3604.000000 -396.000000 536.000000
-3604.000000 -398.000000 536.000000
-3604.000000 -400.000000 536.000000
-3604.000000 -402.000000 536.000000
-3604.000000 -404.000000 536.000000
-3604.000000 -406.000000 536.000000
-3604.000000 -408.000000 536.000000
-3604.000000 -410.000000 536.000000
-3604.000000 -412.000000 536.000000
-3604.000000 -414.000000 536.000000
-3604.000000 -416.000000 536.000000
-3604.000000 -418.000000 536.000000
-3604.000000 -420.000000 536.000000
-3604.000000 -422.000000 536.000000
-3604.000000 -424.000000 536.000000
-3604.000000 -426.000000 536.000000
-3604.000000 -428.000000 536.000000
-3604.000000 -430.000000 536.000000
-3604.000000 -432.000000 536.000000
-3604.000000 -434.000000 536.000000
-3604.000000 -436.000000 536.000000
-3604.000000 -438.000000 536.000000
-3604.000000 -440.000000 536.000000
-3604.000000 -442.000000 536.000000
-3604.000000 -444.000000 536.000000
-3604.000000 -446.000000 536.000000
-3604.000000 -448.000000 536.000000
-3604.000000 -450.000000 536.000000
-3604.000000 -452.000000 536.000000
-3604.000000 -454.000000 536.000000
-3604.000000 -456.000000 536.000000
-3604.000000 -458.000000 536.000000
-3604.000000 -460.000000 536.000000
-3604.000000 -462.000000 536.000000
-3604.000000 -464.000000 536.000000
-3604.000000 -466.000000 536.000000
-3604.000000 -468.000000 536.000000
-3604.000000 -470.000000 536.000000
-3604.000000 -472.000000 536.000000
-3604.000000 -474.000000 536.000000
-3604.000000 -476.000000 536.000000
-3604.000000 -478.000000 536.000000
-3604.000000 -480.000000 536.000000
-3604.000000 -482.000000 536.000000
-3604.000000 -484.000000 536.000000
-3604.000000 -486.000000 536.000000
-3604.000000 -488.000000 536.000000
-3604.000000 -490.000000 536.000000
-3604.000000 -492.000000 536.000000
-3604.000000 -494.000000 536.000000
-3604.000000 -496.000000 536.000000
-3604.000000 -498.000000 536.000000
-3604.000000 -500.000000 536.000000
-3604.000000 -502.000000 536.000000
-3604.000000 -504.000000 536.000000
-3604.000000 -506.000000 536.000000
-3604.000000 -508.000000 536.000000
-3604.000000 -510.000000 536.000000
-3604.000000 -512.000000 536.000000
-3604.000000 -514.000000 536.000000
-3604.000000 -516.000000 536.000000
-3604.000000 -518.000000 536.000000
-3604.000000 -520.000000 536.000000
-3604.000000 -522.000000 536.000000
-3604.000000 -524.000000 536.000000
-3604.000000 -526.000000 536.000000
-3604.000000 -528.000000 536.000000
-3604.000000 -530.000000 536.000000
-3604.000000 -532.000000 536.000000
-3604.000000 -534.000000 536.000000
-3604.000000 -536.000000 536.000000
-3604.000000 -538.000000 536.000000
-3604.000000 -540.000000 536.000000
-3604.000000 -542.000000 536.000000
-3604.000000 -544.000000 536.000000
-3604.000000 -546.000000 536.000000
-3604.000000 -548.000000 536.000000
-3604.000000 -550.000000 536.000000
-3604.000000 -552.000000 536.000000
-3604.000000 -554.000000 536.000000
-3604.000000 -556.000000 536.000000
-3604.000000 -558.000000 536.000000
-3604.000000 -560.000000 536.000000
-3604.000000 -562.000000 536.000000
-3604.000000 -564.000000 536.000000
-3604.000000 -566.000000 536.000000
-3604.000000 -568.000000 536.000000
-3604.000000 -570.000000 536.000000
-3604.000000 -572.000000 536.000000
-3604.000000 -574.000000 536.000000
-3604.000000 -576.000000 536.000000
-3604.000000 -578.000000 536.000000
-3604.000000 -580.000000 536.000000
-3604.000000 -582.000000 536.000000
-3604.000000 -584.000000 536.000000
-3604.000000 -586.000000 536.000000
-3604.000000 -588.000000 536.000000
-3604.000000 -590.000000 536.000000
-3604.000000 -592.000000 536.000000
-3604.000000 -594.000000 536.000000
-3604.000000 -596.000000 536.000000
-3604.000000 -598.000000 536.000000
-3604.000000 -600.000000 536.000000
-3604.000000 -602.000000 536.000000
-3604.000000 -604.000000 536.000000
-3604.000000 -606.000000 536.000000
-3604.000000 -608.000000 536.000000
-3604.000000 -610.000000 536.000000
-3604.000000 -612.000000 536.000000
-3604.000000 -614.000000 536.000000
-3604.000000 -616.000000 536.000000
-3604.000000 -618.000000 536.000000
-3604.000000 -620.000000 536.000000
-3604.000000 -622.000000 536.000000
-3604.000000 -624.000000 536.000000
-3604.000000 -626.000000 536.000000
-3604.000000 -628.000000 536.000000
-3604.000000 -630.000000 536.000000
-3604.000000 -632.000000 536.000000
-3604.000000 -634.000000 536.000000
-3604.000000 -636.000000 536.000000
-3604.000000 -638.000000 536.000000
-3604.000000 -640.000000 536.000000
-3604.000000 -642.000000 536.000000
-3604.000000 -644.000000 536.000000
-3604.000000 -646.000000 536.000000
-3604.000000 -648.000000 536.000000
-3604.000000 -650.000000 536.000000
-3604.000000 -652.000000 536.000000
-3604.000000 -654.000000 536.000000
-3604.000000 -656.000000 536.000000
-3604.000000 -658.000000 536.000000
-3604.000000 -660.000000 536.000000
-3604.000000 -662.000000 536.000000
-3604.000000 -664.000000 536.000000
-3604.000000 -666.000000 536.000000
-3604.000000 -668.000000 536.000000
-3604.000000 -670.000000 536.000000
-3604.000000 -672.000000 536.000000
-3604.000000 -674.000000 536.000000
-3604.000000 -676.000000 536.000000
-3604.000000 -678.000000 536.000000
-3604.000000 -680.000000 536.000000
-3604.000000 -682.000000 536.000000
-3604.000000 -684.000000 536.000000
-3604.000000 -686.000000 536.000000
-3604.000000 -688.000000 536.000000
-3604.000000 -690.000000 536.000000
-3604.000000 -692.000000 536.000000
-3604.000000 -694.000000 536.000000
-3604.000000 -696.000000 536.000000
-3604.000000 -698.000000 536.000000
-3604.000000 -700.000000 536.000000
-3604.000000 -702.000000 536.000000
-3604.000000 -704.000000 536.000000
-3604.000000 -706.000000 536.000000
-3604.000000 -708.000000 536.000000
-3604.000000 -710.000000 536.000000
-3604.000000 -712.000000 536.000000
-3604.000000 -714.000000 536.000000
-3604.000000 -716.000000 536.000000
-3604.000000 -718.000000 536.000000
-3604.000000 -720.000000 536.000000
-3604.000000 -722.000000 536.000000
-3604.000000 -724.000000 536.000000
-3604.000000 -726.000000 536.000000
-3604.000000 -728.000000 536.000000
-3604.000000 -730.000000 536.000000
-3604.000000 -732.000000 536.000000
-3604.000000 -734.000000 536.000000
-3604.000000 -736.000000 536.000000
-3604.000000 -738.000000 536.000000
-3604.000000 -740.000000 536.000000
-3604.000000 -742.000000 536.000000
-3604.000000 -744.000000 536.000000
-3604.000000 -746.000000 536.000000
-3604.000000 -748.000000 536.000000
-3604.000000 -750.000000 536.000000
-3604.000000 -752.000000 536.000000
-3604.000000 -754.000000 536.000000
-3604.000000 -756.000000 536.000000
-3604.000000 -758.000000 536.000000
-3604.000000 -760.000000 536.000000
-3604.000000 -762.000000 536.000000
-3604.000000 -764.000000 536.000000
-3604.000000 -766.000000 536.000000
-3604.000000 -768.000000 536.000000
-3604.000000 -770.000000 536.000000
-3604.000000 -772.000000 536.000000
-3604.000000 -774.000000 536.000000
-3604.000000 -776.000000 536.000000
-3604.000000 -778.000000 536.000000
-3604.000000 -780.000000 536.000000
-3604.000000 -782.000000 536.000000
-3604.000000 -784.000000 536.000000
-3604.000000 -786.000000 536.000000
-3604.000000 -788.000000 536.000000
-3604.000000 -790.000000 536.000000
-3604.000000 -792.000000 536.000000
-3604.000000 -794.000000 536.000000
-3604.000000 -796.000000 536.000000
-3604.000000 -798.000000 536.000000
-3604.000000 -800.000000 536.000000
-3604.000000 -802.000000 536.000000
-3604.000000 -804.000000 536.000000
-3604.000000 -806.000000 536.000000
-3604.000000 -808.000000 536.000000
-3604.000000 -810.000000 536.000000
-3604.000000 -812.000000 536.000000
-3604.000000 -814.000000 536.000000
-3604.000000 -816.000000 536.000000
-3604.000000 -818.000000 536.000000
-3604.000000 -820.000000 536.000000
-3604.000000 -822.000000 536.000000
-3604.000000 -824.000000 536.000000
-3604.000000 -826.000000 536.000000
-3604.000000 -828.000000 536.000000
-3604.000000 -830.000000 536.000000
-3604.000000 -832.000000 536.000000
-3604.000000 -834.000000 536.000000
-3604.000000 -836.000000 536.000000
-3604.000000 -838.000000 536.000000
-3604.000000 -840.000000 536.000000
-3604.000000 -842.000000 536.000000
-3604.000000 -844.000000 536.000000
-3604.000000 -846.000000 536.000000
-3604.000000 -848.000000 536.000000
-3604.000000 -850.000000 536.000000
-3604.000000 -852.000000 536.000000
-3604.000000 -854.000000 536.000000
-3604.000000 -856.000000 536.000000
-3604.000000 -858.000000 536.000000
-3604.000000 -860.000000 536.000000
-3604.000000 -862.000000 536.000000
-3604.000000 -864.000000 536.000000
-3604.000000 -866.000000 536.000000
-3604.000000 -868.000000 536.000000
-3604.000000 -870.000000 536.000000
-3604.000000 -872.000000 536.000000
-3604.000000 -874.000000 536.000000
-3604.000000 -876.000000 536.000000
-3604.000000 -878.000000 536.000000
-3604.000000 -880.000000 536.000000
-3604.000000 -882.000000 536.000000
-3604.000000 -884.000000 536.000000
-3604.000000 -886.000000 536.000000
-3604.000000 -888.000000 536.000000
-3604.000000 -890.000000 536.000000
-3604.000000 -892.000000 536.000000
-3604.000000 -894.000000 536.000000
-3604.000000 -896.000000 536.000000
-3604.000000 -898.000000 536.000000
-3604.000000 -900.000000 536.000000
-3604.000000 -902.000000 536.000000
-3604.000000 -904.000000 536.000000
-3604.000000 -906.000000 536.000000
-3604.000000 -908.000000 536.000000
-3604.000000 -910.000000 536.000000
-3604.000000 -912.000000 536.000000
-3604.000000 -914.000000 536.000000
-3604.000000 -916.000000 536.000000
-3604.000000 -918.000000 536.000000
-3604.000000 -920.000000 536.000000
-3604.000000 -922.000000 536.000000
-3604.000000 -924.000000 536.000000
-3604.000000 -926.000000 536.000000
-3604.000000 -928.000000 536.000000
-3604.000000 -930.000000 536.000000
-3604.000000 -932.000000 536.000000
-3604.000000 -934.000000 536.000000
-3604.000000 -936.000000 536.000000
-3604.000000 -938.000000 536.000000
-3604.000000 -940.000000 536.000000
-3604.000000 -942.000000 536.000000
-3604.000000 -944.000000 536.000000
-3604.000000 -946.000000 536.000000
-3604.000000 -948.000000 536.000000
-3604.000000 -950.000000 536.000000
-3604.000000 -952.000000 536.000000
-3604.000000 -954.000000 536.000000
-3604.000000 -956.000000 536.000000
-3604.000000 -958.000000 536.000000
-3604.000000 -960.000000 536.000000
-3604.000000 -962.000000 536.000000
-3604.000000 -964.000000 536.000000
-3604.000000 -966.000000 536.000000
-3604.000000 -968.000000 536.000000
-3604.000000 -970.000000 536.000000
-3604.000000 -972.000000 536.000000
-3604.000000 -974.000000 536.000000
-3604.000000 -976.000000 536.000000
-3604.000000 -978.000000 536.000000
-3604.000000 -980.000000 536.000000
-3604.000000 -982.000000 536.000000
-3604.000000 -984.000000 536.000000
-3604.000000 -986.000000 536.000000
-3604.000000 -988.000000 536.000000
-3604.000000 -990.000000 536.000000
-3604.000000 -992.000000 536.000000
-3604.000000 -994.000000 536.000000
-3604.000000 -996.000000 536.000000
-3604.000000 -998.000000 536.000000
-3604.000000 -1000.000000 536.000000
-3604.000000 -1002.000000 536.000000
-3604.000000 -1004.000000 536.000000
-3604.000000 -1006.000000 536.000000
-3604.000000 -1008.000000 536.000000
-3604.000000 -1010.000000 536.000000
-3604.000000 -1012.000000 536.000000
-3604.000000 -1014.000000 536.000000
-3604.000000 -1016.000000 536.000000
-3604.000000 -1018.000000 536.000000
-3604.000000 -1020.000000 536.000000
-3604.000000 -1022.000000 536.000000
-3604.000000 -1024.000000 536.000000
-3604.000000 -1026.000000 536.000000
-3604.000000 -1028.000000 536.000000
-3604.000000 -1030.000000 536.000000
-3604.000000 -1032.000000 536.000000
-3604.000000 -1034.000000 536.000000
-3604.000000 -1036.000000 536.000000
-3604.000000 -1038.000000 536.000000
-3604.000000 -1040.000000 536.000000
-3604.000000 -1042.000000 536.000000
-3604.000000 -1044.000000 536.000000
-3604.000000 -1046.000000 536.000000
-3604.000000 -1048.000000 536.000000
-3604.000000 -1050.000000 536.000000
-3604.000000 -1052.000000 536.000000
-3604.000000 -1054.000000 536.000000
-3604.000000 -1056.000000 536.000000
-3604.000000 -1058.000000 536.000000
-3604.000000 -1060.000000 536.000000
-3604.000000 -1062.000000 536.000000
-3604.000000 -1064.000000 536.000000
-3604.000000 -1066.000000 536.000000
-3604.000000 -1068.000000 536.000000
-3604.000000 -1070.000000 536.000000
-3604.000000 -1072.000000 536.000000
-3604.000000 -1074.000000 536.000000
-3604.000000 -1076.000000 536.000000
-3604.000000 -1078.000000 536.000000
-3604.000000 -1080.000000 536.000000
-3604.000000 -1082.000000 536.000000
-3604.000000 -1084.000000 536.000000
-3604.000000 -1086.000000 536.000000
-3604.000000 -1088.000000 536.000000
-3604.000000 -1090.000000 536.000000
-3604.000000 -1092.000000 536.000000
-3604.000000 -1094.000000 536.000000
-3604.000000 -1096.000000 536.000000
-3604.000000 -1098.000000 536.000000
-3604.000000 -1100.000000 536.000000
-3604.000000 -1102.000000 536.000000
-3604.000000 -1104.000000 536.000000
-3604.000000 -1106.000000 536.000000
-3604.000000 -1108.000000 536.000000
-3604.000000 -1110.000000 536.000000
-3604.000000 -1112.000000 536.000000
-3604.000000 -1114.000000 536.000000
-3604.000000 -1116.000000 536.000000
-3604.000000 -1118.000000 536.000000
-3604.000000 -1120.000000 536.000000
-3604.000000 -1122.000000 536.000000
-3604.000000 -1124.000000 536.000000
-3604.000000 -1126.000000 536.000000
-3604.000000 -1128.000000 536.000000
-3604.000000 -1130.000000 536.000000
-3604.000000 -1132.000000 536.000000
-3604.000000 -1134.000000 536.000000
-3604.000000 -1136.000000 536.000000
-3604.000000 -1138.000000 536.000000
-3604.000000 -1140.000000 536.000000
-3604.000000 -1142.000000 536.000000
-3604.000000 -1144.000000 536.000000
-3604.000000 -1146.000000 536.000000
-3604.000000 -1148.000000 536.000000
-3604.000000 -1150.000000 536.000000
-3604.000000 -1152.000000 536.000000
-3604.000000 -1154.000000 536.000000
-3604.000000 -1156.000000 536.000000
-3604.000000 -1158.000000 536.000000
-3604.000000 -1160.000000 536.000000
-3604.000000 -1162.000000 536.000000
-3604.000000 -1164.000000 536.000000
-3604.000000 -1166.000000 536.000000
-3604.000000 -1168.000000 536.000000
-3604.000000 -1170.000000 536.000000
-3604.000000 -1172.000000 536.000000
-3604.000000 -1174.000000 536.000000
-3604.000000 -1176.000000 536.000000
-3604.000000 -1178.000000 536.000000
-3604.000000 -1180.000000 536.000000
-3604.000000 -1182.000000 536.000000
-3604.000000 -1184.000000 536.000000
-3604.000000 -1186.000000 536.000000
-3604.000000 -1188.000000 536.000000
-3604.000000 -1190.000000 536.000000
-3604.000000 -1192.000000 536.000000
-3604.000000 -1194.000000 536.000000
-3604.000000 -1196.000000 536.000000
-3604.000000 -1198.000000 536.000000
-3604.000000 -1200.000000 536.000000
-3604.000000 -1202.000000 536.000000
-3604.000000 -1204.000000 536.000000
-3604.000000 -1206.000000 536.000000
-3604.000000 -1208.000000 536.000000
-3604.000000 -1210.000000 536.000000
-3604.000000 -1212.000000 536.000000
-3604.000000 -1214.000000 536.000000
-3604.000000 -1216.000000 536.000000
-3604.000000 -1218.000000 536.000000
-3604.000000 -1220.000000 536.000000
-3604.000000 -1222.000000 536.000000
-3604.000000 -1224.000000 536.000000
-3604.000000 -1226.000000 536.000000
-3604.000000 -1228.000000 536.000000
-3604.000000 -1230.000000 536.000000
-3604.000000 -1232.000000 536.000000
-3604.000000 -1234.000000 536.000000
-3604.000000 -1236.000000 536.000000
-3604.000000 -1238.000000 536.000000
-3604.000000 -1240.000000 536.000000
-3604.000000 -1242.000000 536.000000
-3604.000000 -1244.000000 536.000000
-3604.000000 -1246.000000 536.000000
-3604.000000 -1248.000000 536.000000
-3604.000000 -1250.000000 536.000000
-3604.000000 -1252.000000 536.000000
-3604.000000 -1254.000000 536.000000
-3604.000000 -1256.000000 536.000000
-3604.000000 -1258.000000 536.000000
-3604.000000 -1260.000000 536.000000
-3604.000000 -1262.000000 536.000000
-3604.000000 -1264.000000 536.000000
-3604.000000 -1266.000000 536.000000
-3604.000000 -1268.000000 536.000000
-3604.000000 -1270.000000 536.000000
-3604.000000 -1272.000000 536.000000
-3604.000000 -1274.000000 536.000000
-3604.000000 -1276.000000 536.000000
-3604.000000 -1278.000000 536.000000
-3604.000000 -1280.000000 536.000000
-3604.000000 -1282.000000 536.000000
-3604.000000 -1284.000000 536.000000
-3604.000000 -1286.000000 536.000000
-3604.000000 -1288.000000 536.000000
-3604.000000 -1290.000000 536.000000
-3604.000000 -1292.000000 536.000000
-3604.000000 -1294.000000 536.000000
-3604.000000 -1296.000000 536.000000
-3604.000000 -1298.000000 536.000000
-3604.000000 -1300.000000 536.000000
-3604.000000 -1302.000000 536.000000
-3604.000000 -1304.000000 536.000000
-3604.000000 -1306.000000 536.000000
-3604.000000 -1308.000000 536.000000
-3604.000000 -1310.000000 536.000000
-3604.000000 -1312.000000 536.000000
-3604.000000 -1314.000000 536.000000
-3604.000000 -1316.000000 536.000000
-3604.000000 -1318.000000 536.000000
-3604.000000 -1320.000000 536.000000
-3604.000000 -1322.000000 536.000000
-3604.000000 -1324.000000 536.000000
-3604.000000 -1326.000000 536.000000
-3604.000000 -1328.000000 536.000000
-3604.000000 -1330.000000 536.000000
-3604.000000 -1332.000000 536.000000
-3604.000000 -1334.000000 536.000000
-3604.000000 -1336.000000 536.000000
-3604.000000 -1338.000000 536.000000
-3604.000000 -1340.000000 536.000000
-3604.000000 -1342.000000 536.000000
-3604.000000 -1344.000000 536.000000
-3604.000000 -1346.000000 536.000000
-3604.000000 -1348.000000 536.000000
-3604.000000 -1350.000000 536.000000
-3604.000000 -1352.000000 536.000000
-3604.000000 -1354.000000 536.000000
-3604.000000 -1356.000000 536.000000
-3604.000000 -1358.000000 536.000000
-3604.000000 -1360.000000 536.000000
-3604.000000 -1362.000000 536.000000
-3604.000000 -1364.000000 536.000000
-3604.000000 -1366.000000 536.000000
-3604.000000 -1368.000000 536.000000
-3604.000000 -1370.000000 536.000000
-3604.000000 -1372.000000 536.000000
-3604.000000 -1374.000000 536.000000
-3604.000000 -1376.000000 536.000000
-3604.000000 -1378.000000 536.000000
-3604.000000 -1380.000000 536.000000
-3604.000000 -1382.000000 536.000000
-3604.000000 -1384.000000 536.000000
-3604.000000 -1386.000000 536.000000
-3604.000000 -1388.000000 536.000000
-3604.000000 -1390.000000 536.000000
-3604.000000 -1392.000000 536.000000
-3604.000000 -1394.000000 536.000000
-3604.000000 -1396.000000 536.000000
-3604.000000 -1398.000000 536.000000
-3604.000000 -1400.000000 536.000000
-3604.000000 -1402.000000 536.000000
-3604.000000 -1404.000000 536.000000
-3604.000000 -1406.000000 536.000000
-3604.000000 -1408.000000 536.000000
-3604.000000 -1410.000000 536.000000
-3604.000000 -1412.000000 536.000000
-3604.000000 -1414.000000 536.000000
-3604.000000 -1416.000000 536.000000
-3604.000000 -1418.000000 536.000000
-3604.000000 -1420.000000 536.000000
-3604.000000 -1422.000000 536.000000
-3604.000000 -1424.000000 536.000000
-3604.000000 -1426.000000 536.000000
-3604.000000 -1428.000000 536.000000
-3604.000000 -1430.000000 536.000000
-3604.000000 -1432.000000 536.000000
-3604.000000 -1434.000000 536.000000
-3604.000000 -1436.000000 536.000000
-3604.000000 -1438.000000 536.000000
-3604.000000 -1440.000000 536.000000
-3604.000000 -1442.000000 536.000000
-3604.000000 -1444.000000 536.000000
-3604.000000 -1446.000000 536.000000
-3604.000000 -1448.000000 536.000000
-3604.000000 -1450.000000 536.000000
-3604.000000 -1452.000000 536.000000
-3604.000000 -1454.000000 536.000000
-3604.000000 -1456.000000 536.000000
-3604.000000 -1458.000000 536.000000
-3604.000000 -1460.000000 536.000000
-3604.000000 -1462.000000 536.000000
-3604.000000 -1464.000000 536.000000
-3604.000000 -1466.000000 536.000000
-3604.000000 -1468.000000 536.000000
-3604.000000 -1470.000000 536.000000
-3604.000000 -1472.000000 536.000000
-3604.000000 -1474.000000 536.000000
-3604.000000 -1476.000000 536.000000
-3604.000000 -1478.000000 536.000000
-3604.000000 -1480.000000 536.000000
-3604.000000 -1482.000000 536.000000
-3604.000000 -1484.000000 536.000000
-3604.000000 -1486.000000 536.000000
-3604.000000 -1488.000000 536.000000
-3604.000000 -1490.000000 536.000000
-3604.000000 -1492.000000 536.000000
-3604.000000 -1494.000000 536.000000
-3604.000000 -1496.000000 536.000000
-3604.000000 -1498.000000 536.000000
-3604.000000 -1500.000000 536.000000
-3604.000000 -1502.000000 536.000000
-3604.000000 -1504.000000 536.000000
-3604.000000 -1506.000000 536.000000
-3604.000000 -1508.000000 536.000000
-3604.000000 -1510.000000 536.000000
-3604.000000 -1512.000000 536.000000
-3604.000000 -1514.000000 536.000000
-3604.000000 -1516.000000 536.000000
-3604.000000 -1518.000000 536.000000
-3604.000000 -1520.000000 536.000000
-3604.000000 -1522.000000 536.000000
-3604.000000 -1524.000000 536.000000
-3604.000000 -1526.000000 536.000000
-3604.000000 -1528.000000 536.000000
-3604.000000 -1530.000000 536.000000
-3604.000000 -1532.000000 536.000000
-3604.000000 -1534.000000 536.000000
-3604.000000 -1536.000000 536.000000
-3604.000000 -1538.000000 536.000000
-3604.000000 -1540.000000 536.000000
-3604.000000 -1542.000000 536.000000
-3604.000000 -1544.000000 536.000000
-3604.000000 -1546.000000 536.000000
-3604.000000 -1548.000000 536.000000
-3604.000000 -1550.000000 536.000000
-3604.000000 -1552.000000 536.000000
-3604.000000 -1554.000000 536.000000
-3604.000000 -1556.000000 536.000000
-3604.000000 -1558.000000 536.000000
-3604.000000 -1560.000000 536.000000
-3604.000000 -1562.000000 536.000000
-3604.000000 -1564.000000 536.000000
-3604.000000 -1566.000000 536.000000
-3604.000000 -1568.000000 536.000000
-3604.000000 -1570.000000 536.000000
-3604.000000 -1572.000000 536.000000
-3604.000000 -1574.000000 536.000000
-3604.000000 -1576.000000 536.000000
-3604.000000 -1578.000000 536.000000
-3604.000000 -1580.000000 536.000000
-3604.000000 -1582.000000 536.000000
-3604.000000 -1584.000000 536.000000
-3604.000000 -1586.000000 536.000000
-3604.000000 -1588.000000 536.000000
-3604.000000 -1590.000000 536.000000
-3604.000000 -1592.000000 536.000000
-3604.000000 -1594.000000 536.000000
-3604.000000 -1596.000000 536.000000
-3604.000000 -1598.000000 536.000000
-3604.000000 -1600.000000 536.000000
-3604.000000 -1602.000000 536.000000
-3604.000000 -1604.000000 536.000000
-3604.000000 -1606.000000 536.000000
-3604.000000 -1608.000000 536.000000
-3604.000000 -1610.000000 536.000000
-3604.000000 -1612.000000 536.000000
-3604.000000 -1614.000000 536.000000
-3604.000000 -1616.000000 536.000000
-3604.000000 -1618.000000 536.000000
-3604.000000 -1620.000000 536.000000
-3604.000000 -1622.000000 536.000000
-3604.000000 -1624.000000 536.000000
-3604.000000 -1626.000000 536.000000
-3604.000000 -1628.000000 536.000000
-3604.000000 -1630.000000 536.000000
-3604.000000 -1632.000000 536.000000
-3604.000000 -1634.000000 536.000000
-3604.000000 -1636.000000 536.000000
-3604.000000 -1638.000000 536.000000
-3604.000000 -1640.000000 536.000000
-3604.000000 -1642.000000 536.000000
-3604.000000 -1644.000000 536.000000
-3604.000000 -1646.000000 536.000000
-3604.000000 -1648.000000 536.000000
-3604.000000 -1650.000000 536.000000
-3604.000000 -1652.000000 536.000000
-3604.000000 -1654.000000 536.000000
-3604.000000 -1656.000000 536.000000
-3604.000000 -1658.000000 536.000000
-3604.000000 -1660.000000 536.000000
-3604.000000 -1662.000000 536.000000
-3604.000000 -1664.000000 536.000000
-3604.000000 -1666.000000 536.000000
-3604.000000 -1668.000000 536.000000
-3604.000000 -1670.000000 536.000000
-3604.000000 -1672.000000 536.000000
-3604.000000 -1674.000000 536.000000
-3604.000000 -1676.000000 536.000000
-3604.000000 -1678.000000 536.000000
-3604.000000 -1680.000000 536.000000
-3604.000000 -1682.000000 536.000000
-3604.000000 -1684.000000 536.000000
-3604.000000 -1686.000000 536.000000
-3604.000000 -1688.000000 536.000000
-3604.000000 -1690.000000 536.000000
-3604.000000 -1692.000000 536.000000
-3604.000000 -1694.000000 536.000000
-3604.000000 -1696.000000 536.000000
-3604.000000 -1698.000000 536.000000
-3604.000000 -1700.000000 536.000000
-3604.000000 -1702.000000 536.000000
-3604.000000 -1704.000000 536.000000
-3604.000000 -1706.000000 536.000000
-3604.000000 -1708.000000 536.000000
-3604.000000 -1710.000000 536.000000
-3604.000000 -1712.000000 536.000000
-3604.000000 -1714.000000 536.000000
-3604.000000 -1716.000000 536.000000
-3604.000000 -1718.000000 536.000000
-3604.000000 -1720.000000 536.000000
-3604.000000 -1722.000000 536.000000
-3604.000000 -1724.000000 536.000000
-3604.000000 -1726.000000 536.000000
-3604.000000 -1728.000000 536.000000
-3604.000000 -1730.000000 536.000000
-3604.000000 -1732.000000 536.000000
-3604.000000 -1734.000000 536.000000
-3604.000000 -1736.000000 536.000000
-3604.000000 -1738.000000 536.000000
-3604.000000 -1740.000000 536.000000
-3604.000000 -1742.000000 536.000000
-3604.000000 -1744.000000 536.000000
-3604.000000 -1746.000000 536.000000
-3604.000000 -1748.000000 536.000000
-3604.000000 -1750.000000 536.000000
-3604.000000 -1752.000000 536.000000
-3604.000000 -1754.000000 536.000000
-3604.000000 -1756.000000 536.000000
-3604.000000 -1758.000000 536.000000
-3604.000000 -1760.000000 536.000000
-3604.000000 -1762.000000 536.000000
-3604.000000 -1764.000000 536.000000
-3604.000000 -1766.000000 536.000000
-3604.000000 -1768.000000 536.000000
-3604.000000 -1770.000000 536.000000
-3604.000000 -1772.000000 536.000000
-3604.000000 -1774.000000 536.000000
-3604.000000 -1776.000000 536.000000
-3604.000000 -1778.000000 536.000000
-3604.000000 -1780.000000 536.000000
-3604.000000 -1782.000000 536.000000
-3604.000000 -1784.000000 536.000000
-3604.000000 -1786.000000 536.000000
-3604.000000 -1788.000000 536.000000
-3604.000000 -1790.000000 536.000000
-3604.000000 -1792.000000 536.000000
-3604.000000 -1794.000000 536.000000
-3604.000000 -1796.000000 536.000000
-3604.000000 -1798.000000 536.000000
-3604.000000 -1800.000000 536.000000
-3604.000000 -1802.000000 536.000000
-3604.000000 -1804.000000 536.000000
-3604.000000 -1806.000000 536.000000
-3604.000000 -1808.000000 536.000000
-3604.000000 -1810.000000 536.000000
-3604.000000 -1812.000000 536.000000
-3604.000000 -1814.000000 536.000000
-3604.000000 -1816.000000 536.000000
-3604.000000 -1818.000000 536.000000
-3604.000000 -1820.000000 536.000000
-3604.000000 -1822.000000 536.000000
-3604.000000 -1824.000000 536.000000
-3604.000000 -1826.000000 536.000000
-3604.000000 -1828.000000 536.000000
-3604.000000 -1830.000000 536.000000
-3604.000000 -1832.000000 536.000000
-3604.000000 -1834.000000 536.000000
-3604.000000 -1836.000000 536.000000
-3604.000000 -1838.000000 536.000000
-3604.000000 -1840.000000 536.000000
-3604.000000 -1842.000000 536.000000
-3604.000000 -1844.000000 536.000000
-3604.000000 -1846.000000 536.000000
-3604.000000 -1848.000000 536.000000
-3604.000000 -1850.000000 536.000000
-3604.000000 -1852.000000 536.000000
-3604.000000 -1854.000000 536.000000
-3604.000000 -1856.000000 536.000000
-3604.000000 -1858.000000 536.000000
-3604.000000 -1860.000000 536.000000
-3604.000000 -1862.000000 536.000000
-3604.000000 -1864.000000 536.000000
-3604.000000 -1866.000000 536.000000
-3604.000000 -1868.000000 536.000000
-3604.000000 -1870.000000 536.000000
-3604.000000 -1872.000000 536.000000
-3604.000000 -1874.000000 536.000000
-3604.000000 -1876.000000 536.000000
-3604.000000 -1878.000000 536.000000
-3604.000000 -1880.000000 536.000000
-3604.000000 -1882.000000 536.000000
-3604.000000 -1884.000000 536.000000
-3604.000000 -1886.000000 536.000000
-3604.000000 -1888.000000 536.000000
-3604.000000 -1890.000000 536.000000
-3604.000000 -1892.000000 536.000000
-3604.000000 -1894.000000 536.000000
-3604.000000 -1896.000000 536.000000
-3604.000000 -1898.000000 536.000000
-3604.000000 -1900.000000 536.000000
-3604.000000 -1902.000000 536.000000
-3604.000000 -1904.000000 536.000000
-3604.000000 -1906.000000 536.000000
-3604.000000 -1908.000000 536.000000
-3604.000000 -1910.000000 536.000000
-3604.000000 -1912.000000 536.000000
-3604.000000 -1914.000000 536.000000
-3604.000000 -1916.000000 536.000000
-3604.000000 -1918.000000 536.000000
-3604.000000 -1920.000000 536.000000
-3604.000000 -1922.000000 536.000000
-3604.000000 -1924.000000 536.000000
-3604.000000 -1926.000000 536.000000
-3604.000000 -1928.000000 536.000000
-3604.000000 -1930.000000 536.000000
-3604.000000 -1932.000000 536.000000
-3604.000000 -1934.000000 536.000000
-3604.000000 -1936.000000 536.000000
-3604.000000 -1938.000000 536.000000
-3604.000000 -1940.000000 536.000000
-3604.000000 -1942.000000 536.000000
-3604.000000 -1944.000000 536.000000
-3604.000000 -1946.000000 536.000000
-3604.000000 -1948.000000 536.000000
-3604.000000 -1950.000000 536.000000
-3604.000000 -1952.000000 536.000000
-3604.000000 -1954.000000 536.000000
-3604.000000 -1956.000000 536.000000
-3604.000000 -1958.000000 536.000000
-3604.000000 -1960.000000 536.000000
-3604.000000 -1962.000000 536.000000
-3604.000000 -1964.000000 536.000000
-3604.000000 -1966.000000 536.000000
-3604.000000 -1968.000000 536.000000
-3604.000000 -1970.000000 536.000000
-3604.000000 -1972.000000 536.000000
-3604.000000 -1974.000000 536.000000
-3604.000000 -1976.000000 536.000000
-3604.000000 -1978.000000 536.000000
-3604.000000 -1980.000000 536.000000
-3604.000000 -1982.000000 536.000000
-3604.000000 -1984.000000 536.000000
-3604.000000 -1986.000000 536.000000
-3604.000000 -1988.000000 536.000000
-3604.000000 -1990.000000 536.000000
-3604.000000 -1992.000000 536.000000
-3604.000000 -1994.000000 536.000000
-3604.000000 -1996.000000 536.000000
-3604.000000 -1998.000000 536.000000
-3604.000000 -2000.000000 536.000000
-3604.000000 -2002.000000 536.000000
-3604.000000 -2004.000000 536.000000
-3604.000000 -2006.000000 536.000000
-3604.000000 -2008.000000 536.000000
-3604.000000 -2010.000000 536.000000
-3604.000000 -2012.000000 536.000000
-3604.000000 -2014.000000 536.000000
-3604.000000 -2016.000000 536.000000
-3604.000000 -2018.000000 536.000000
-3604.000000 -2020.000000 536.000000
-3604.000000 -2022.000000 536.000000
-3604.000000 -2024.000000 536.000000
-3604.000000 -2026.000000 536.000000
-3604.000000 -2028.000000 536.000000
-3604.000000 -2030.000000 536.000000
-3604.000000 -2032.000000 536.000000
-3604.000000 -2034.000000 536.000000
-3604.000000 -2036.000000 536.000000
-3604.000000 -2038.000000 536.000000
-3604.000000 -2040.000000 536.000000
-3604.000000 -2042.000000 536.000000
-3604.000000 -2044.000000 536.000000
-3604.000000 -2046.000000 536.000000
-3604.000000 -2048.000000 536.000000
-3604.000000 -2050.000000 536.000000
-3604.000000 -2052.000000 536.000000
-3604.000000 -2054.000000 536.000000
-3604.000000 -2056.000000 536.000000
-3604.000000 -2058.000000 536.000000
-3604.000000 -2060.000000 536.000000
-3604.000000 -2062.000000 536.000000
-3604.000000 -2064.000000 536.000000
-3604.000000 -2066.000000 536.000000
-3604.000000 -2068.000000 536.000000
-3604.000000 -2070.000000 536.000000
-3604.000000 -2072.000000 536.000000
-3604.000000 -2074.000000 536.000000
-3604.000000 -2076.000000 536.000000
-3604.000000 -2078.000000 536.000000
-3604.000000 -2080.000000 536.000000
-3604.000000 -2082.000000 536.000000
-3604.000000 -2084.000000 536.000000
-3604.000000 -2086.000000 536.000000
-3604.000000 -2088.000000 536.000000
-3604.000000 -2090.000000 536.000000
-3604.000000 -2092.000000 536.000000
-3604.000000 -2096.000000 536.000000
-3604.028044 -2096.504794 534.064956
-3604.056088 -2097.009588 532.129911
-3604.084132 -2097.514382 530.194867
-3604.112176 -2098.019177 528.259823
-3604.140221 -2098.523971 526.324779
-3604.168265 -2099.028765 524.389734
-3604.196309 -2099.533559 522.454690
-3604.224353 -2100.038353 520.519646
-3604.252397 -2100.543147 518.584601
-3604.280441 -2101.047942 516.649557
-3604.308485 -2101.552736 514.714513
-3604.336529 -2102.057530 512.779469
-3604.364574 -2102.562324 510.844424
-3604.392618 -2103.067118 508.909380
-3604.420662 -2103.571912 506.974336
-3604.448706 -2104.076707 505.039291
-3604.476750 -2104.581501 503.104247
-3604.504794 -2105.086295 501.169203
-3604.532838 -2105.591089 499.234159
-3604.560882 -2106.095883 497.299114
-3604.588927 -2106.600677 495.364070
-3604.616971 -2107.105472 493.429026
-3604.645015 -2107.610266 491.493981
-3604.673059 -2108.115060 489.558937
-3604.701103 -2108.619854 487.623893
-3604.729147 -2109.124648 485.688849
-3604.757191 -2109.629442 483.753804
-3604.785235 -2110.134237 481.818760
-3604.813279 -2110.639031 479.883716
-3604.841324 -2111.143825 477.948671
-3604.869368 -2111.648619 476.013627
-3604.897412 -2112.153413 474.078583
-3604.925456 -2112.658207 472.143539
-3604.953500 -2113.163001 470.208494
-3604.981544 -2113.667796 468.273450
-3605.009588 -2114.172590 466.338406
-3605.037632 -2114.677384 464.403361
-3605.065677 -2115.182178 462.468317
-3605.093721 -2115.686972 460.533273
-3605.121765 -2116.191766 458.598229
-3605.149809 -2116.696561 456.663184
-3605.177853 -2117.201355 454.728140
-3605.205897 -2117.706149 452.793096
-3605.233941 -2118.210943 450.858051
-3605.261985 -2118.715737 448.923007
-3605.290030 -2119.220531 446.987963
-3605.318074 -2119.725326 445.052919
-3605.346118 -2120.230120 443.117874
-3605.374162 -2120.734914 441.182830
-3605.402206 -2121.239708 439.247786
-3605.430250 -2121.744502 437.312742
-3605.458294 -2122.249296 435.377697
-3605.486338 -2122.754091 433.442653
-3605.514382 -2123.258885 431.507609
-3605.542427 -2123.763679 429.572564
-3605.570471 -2124.268473 427.637520
-3605.598515 -2124.773267 425.702476
-3605.626559 -2125.278061 423.767432
-3605.654603 -2125.782856 421.832387
-3605.682647 -2126.287650 419.897343
-3605.710691 -2126.792444 417.962299
-3605.738735 -2127.297238 416.027254
-3605.766780 -2127.802032 414.092210
-3605.794824 -2128.306826 412.157166
-3605.822868 -2128.811620 410.222122
-3605.850912 -2129.316415 408.287077
-3605.878956 -2129.821209 406.352033
-3605.907000 -2130.326003 404.416989
-3605.935044 -2130.830797 402.481944
-3605.963088 -2131.335591 400.546900
-3605.991133 -2131.840385 398.611856
-3606.019177 -2132.345180 396.676812
-3606.047221 -2132.849974 394.741767
-3606.075265 -2133.354768 392.806723
-3606.103309 -2133.859562 390.871679
-3606.131353 -2134.364356 388.936634
-3606.159397 -2134.869150 387.001590
-3606.187441 -2135.373945 385.066546
-3606.215485 -2135.878739 383.131502
-3606.243530 -2136.383533 381.196457
-3606.271574 -2136.888327 379.261413
-3606.299618 -2137.393121 377.326369
-3606.327662 -2137.897915 375.391324
-3606.355706 -2138.402710 373.456280
-3606.383750 -2138.907504 371.521236
-3606.411794 -2139.412298 369.586192
-3606.439838 -2139.917092 367.651147
-3606.467883 -2140.421886 365.716103
-3606.495927 -2140.926680 363.781059
-3606.523971 -2141.431475 361.846014
-3606.552015 -2141.936269 359.910970
-3606.580059 -2142.441063 357.975926
-3606.608103 -2142.945857 356.040882
-3606.636147 -2143.450651 354.105837
-3606.664191 -2143.955445 352.170793
-3606.692236 -2144.460239 350.235749
-3606.720280 -2144.965034 348.300704
-3606.748324 -2145.469828 346.365660
-3606.776368 -2145.974622 344.430616
-3606.804412 -2146.479416 342.495572
-3606.832456 -2146.984210 340.560527
-3606.860500 -2147.489004 338.625483
-3606.888544 -2147.993799 336.690439
-3606.916588 -2148.498593 334.755394
-3606.944633 -2149.003387 332.820350
-3606.972677 -2149.508181 330.885306
-3607.000721 -2150.012975 328.950262
-3607.028765 -2150.517769 327.015217
-3607.056809 -2151.022564 325.080173
-3607.084853 -2151.527358 323.145129
-3607.112897 -2152.032152 321.210084
-3607.140941 -2152.536946 319.275040
-3607.168986 -2153.041740 317.339996
-3607.197030 -2153.546534 315.404952
-3607.225074 -2154.051329 313.469907
-3607.253118 -2154.556123 311.534863
-3607.281162 -2155.060917 309.599819
-3607.309206 -2155.565711 307.664774
-3607.337250 -2156.070505 305.729730
-3607.365294 -2156.575299 303.794686
-3607.393339 -2157.080093 301.859642
-3607.421383 -2157.584888 299.924597
-3607.449427 -2158.089682 297.989553
-3607.477471 -2158.594476 296.054509
-3607.505515 -2159.099270 294.119464
-3607.533559 -2159.604064 292.184420
-3607.561603 -2160.108858 290.249376
-3607.589647 -2160.613653 288.314332
-3607.617691 -2161.118447 286.379287
-3607.645736 -2161.623241 284.444243
-3607.673780 -2162.128035 282.509199
-3607.701824 -2162.632829 280.574154
-3607.729868 -2163.137623 278.639110
-3607.757912 -2163.642418 276.704066
-3607.785956 -2164.147212 274.769022
-3607.814000 -2164.652006 272.833977
-3607.842044 -2165.156800 270.898933
-3607.870089 -2165.661594 268.963889
-3607.898133 -2166.166388 267.028844
-3607.926177 -2166.671183 265.093800
-3607.954221 -2167.175977 263.158756
-3607.982265 -2167.680771 261.223712
-3608.010309 -2168.185565 259.288667
-3608.038353 -2168.690359 257.353623
-3608.066397 -2169.195153 255.418579
-3608.094442 -2169.699948 253.483534
-3608.122486 -2170.204742 251.548490
-3608.150530 -2170.709536 249.613446
-3608.178574 -2171.214330 247.678402
-3608.206618 -2171.719124 245.743357
-3608.234662 -2172.223918 243.808313
-3608.262706 -2172.728712 241.873269
-3608.290750 -2173.233507 239.938225
-3608.318794 -2173.738301 238.003180
-3608.346839 -2174.243095 236.068136
-3608.374883 -2174.747889 234.133092
-3608.402927 -2175.252683 232.198047
-3608.430971 -2175.757477 230.263003
-3608.459015 -2176.262272 228.327959
-3608.487059 -2176.767066 226.392915
-3608.515103 -2177.271860 224.457870
-3608.543147 -2177.776654 222.522826
-3608.571192 -2178.281448 220.587782
-3608.599236 -2178.786242 218.652737
-3608.627280 -2179.291037 216.717693
-3608.655324 -2179.795831 214.782649
-3608.683368 -2180.300625 212.847605
-3608.711412 -2180.805419 210.912560
-3608.739456 -2181.310213 208.977516
-3608.767500 -2181.815007 207.042472
-3608.795545 -2182.319802 205.107427
-3608.823589 -2182.824596 203.172383
-3608.851633 -2183.329390 201.237339
-3608.879677 -2183.834184 199.302295
-3608.907721 -2184.338978 197.367250
-3608.935765 -2184.843772 195.432206
-3608.963809 -2185.348567 193.497162
-3608.991853 -2185.853361 191.562117
-3609.019897 -2186.358155 189.627073
-3609.047942 -2186.862949 187.692029
-3609.075986 -2187.367743 185.756985
-3609.104030 -2187.872537 183.821940
-3609.132074 -2188.377331 181.886896
-3609.160118 -2188.882126 179.951852
-3609.188162 -2189.386920 178.016807
